# .PCD v0.7 - Point Cloud Data file format
VERSION 0.7
FIELDS x y z
SIZE 4 4 4
TYPE F F F
COUNT 1 1 1
WIDTH 1587
HEIGHT 1
VIEWPOINT 0 0 0 1 0 0 0
POINTS 1587
DATA ascii
6.6722679 18.213125 3.4198358
6.3668318 17.388783 3.5978048
5.6810393 15.524169 3.512265
5.5773797 15.240907 3.7456517
5.1337309 14.028578 3.7256725
4.7815323 13.07322 3.7327728
4.4596167 12.193069 3.7292011
5.8137951 17.569006 3.5955162
5.5051169 16.645937 3.7250791
5.0689759 15.327167 3.725862
4.6905489 14.18291 3.7256725
4.3661079 13.209624 3.730701
4.0720096 12.319832 3.7269924
5.8017163 17.349566 3.5543199
5.5573854 16.628561 3.7250791
5.1158671 15.307469 3.7249625
4.7363133 14.171785 3.7266405
4.4100337 13.203172 3.7327728
4.1167836 12.325212 3.7325139
5.2217731 13.996046 3.7256725
5.8294392 17.803619 3.6397641
5.4515791 16.659431 3.7242479
5.019587 15.339311 3.7249625
4.644762 14.193887 3.7247045
4.3233867 13.219604 3.7296648
4.0380659 12.34718 3.7314095
5.934761 18.114588 3.3608012
5.7524405 16.677927 3.4276798
5.7584863 16.704912 3.7541749
5.254827 15.243837 3.7213645
4.8709316 14.130187 3.7276084
4.5330143 13.15737 3.7317369
4.2315083 12.282229 3.7314095
5.7414527 16.487207 3.7092843
5.7845459 17.119217 3.5108352
5.6146049 16.625849 3.7284043
5.1626844 15.28763 3.7240632
4.7808113 14.156836 3.7266405
4.4502554 13.185591 3.7317369
4.1530252 12.304932 3.7303054
5.7685242 16.89658 3.4688759
5.7363019 16.811794 3.7741263
5.2169795 15.28978 3.7285607
4.8277693 14.149094 3.7285764
4.4916573 13.171546 3.7317369
4.1879387 12.280908 3.7269924
4.8622289 13.039299 3.7317369
4.873899 12.021019 3.7258883
5.2289138 12.896629 3.7317369
5.5661993 13.598831 3.6646912
5.2694039 12.880139 3.7317369
4.9130955 12.009205 3.7269924
6.3110218 15.418513 3.5396981
5.5715942 13.734934 3.6966338
6.2919683 15.510778 3.5563242
6.2723956 15.603075 3.5729504
5.5834265 13.88921 3.7334163
5.1883721 12.912992 3.7317369
4.843276 12.054107 3.7314095
6.368391 15.42031 3.5446858
6.5000257 15.462951 3.5638058
5.3920574 12.833467 3.7327728
5.0290384 11.969458 3.7292011
6.4859433 15.294765 3.5297225
5.4956727 12.965865 3.7762856
4.5186772 12.117979 3.7148452
5.0621157 11.94298 3.7258883
5.5585237 13.459311 3.6317806
5.3054199 12.852808 3.7286289
4.9493327 11.990158 3.7258883
6.5116105 15.627762 3.5970581
5.5470409 13.31281 3.5969341
5.3472571 12.839643 3.7296648
4.9899325 11.981648 3.7280967
4.8053837 12.069263 3.7314095
4.9454331 13.012103 3.7327728
4.6124835 12.136066 3.7292011
5.6382375 14.827172 3.6610959
5.6289206 14.663838 3.6251144
5.3548393 13.949833 3.7266405
4.9793677 12.978467 3.7275927
4.6505871 12.121517 3.7292011
6.6152453 17.224318 3.5848358
6.5792527 17.292725 3.5947533
6.7115874 17.799271 3.3538561
6.4362702 17.078154 3.5459282
5.6520791 15.005298 3.7006752
5.2629805 13.972307 3.7237365
4.9086142 13.038423 3.7358809
4.5729799 12.1469 3.7280967
5.3054705 13.952077 3.7227685
6.5840187 16.671825 3.4826081
6.260428 15.860542 3.6228287
5.5544715 14.072029 3.7731025
5.1014638 12.930962 3.7275927
4.7632103 12.073572 3.7280967
6.5709434 16.486919 3.4482777
6.2638893 15.72448 3.5962269
5.1477795 12.929229 3.7317369
5.5914712 14.036483 3.7682626
6.6040363 17.03504 3.5497427
5.6214495 14.507981 3.5909324
5.3986373 13.932942 3.7266405
5.0229073 12.969965 3.7296648
4.6900334 12.110431 3.7303054
4.7238574 12.084895 3.7269924
5.062222 12.950523 3.7286289
5.457932 13.955672 3.737288
6.5902729 16.842348 3.5138867
5.6087966 14.341426 3.5540514
4.396729 16.976442 3.7259104
4.8084016 18.552629 3.7236824
5.3038468 20.449545 3.7247319
5.9095068 22.768381 3.7256434
7.3238788 28.217728 3.5825994
4.0465183 15.624225 3.7249625
6.2234774 23.978058 3.4815545
5.9930601 22.795555 3.7331524
3.4857571 13.468726 3.730701
3.255775 12.580091 3.7325139
7.28126 27.695427 3.5191731
5.3710666 20.44421 3.7268155
3.7482474 14.472555 3.7285764
3.4453394 13.487097 3.7327728
4.8656659 18.533634 3.7229195
7.1133475 28.132322 3.566011
6.2804928 24.838493 3.6006866
5.7673016 22.808893 3.7262692
5.1771841 20.490105 3.7261209
4.6907763 18.578669 3.7229195
4.2871056 16.99235 3.7234166
3.949223 15.653121 3.725862
3.6572404 14.49582 3.7285764
3.4038961 13.5016 3.733809
3.1766682 12.600298 3.7325139
7.1819868 28.032917 3.556253
6.2523232 24.40423 3.5405638
5.8369684 22.783007 3.7250178
5.2415299 20.47374 3.7261209
4.7481465 18.560036 3.7221565
4.340467 16.978798 3.7234166
3.9974134 15.63686 3.7249625
3.7027619 14.484259 3.7285764
3.2171891 12.593981 3.7336183
4.447062 16.951191 3.7234166
3.7936959 14.460708 3.7285764
4.5544972 16.926693 3.7242479
4.191566 15.577867 3.7231636
3.8844795 14.436586 3.7285764
3.6125405 13.435276 3.730701
3.3761899 12.556273 3.7347226
6.1316772 22.459837 3.6874735
5.5655808 20.400284 3.7282045
5.0380564 18.479378 3.7213936
4.6066232 16.908527 3.7234166
4.2435584 15.575904 3.725862
3.9287941 14.420567 3.7276084
3.6567605 13.431315 3.7327728
3.4146099 12.541894 3.7336183
4.9809976 18.498903 3.7221565
4.0965729 15.615207 3.725862
5.4994144 20.410059 3.7268155
3.5290332 13.461446 3.7317369
3.2962554 12.573519 3.7336183
7.2517791 27.235056 3.4635534
6.1541014 23.112576 3.7882173
5.4352674 20.427237 3.7268155
4.9228573 18.514462 3.7221565
4.5033083 16.948481 3.7259104
4.144608 15.598492 3.7249625
3.8381102 14.444967 3.7276084
3.5722973 13.454026 3.7327728
3.3367264 12.566816 3.7347226
6.152627 22.818481 3.7431641
3.3842452 14.565958 3.7295444
3.1470599 13.555833 3.7317369
2.9386082 12.657935 3.7325139
7.6203527 32.236359 3.4885716
6.0990033 25.820728 3.7287259
5.406507 22.888979 3.7250178
4.8537955 20.565062 3.7254264
4.3992782 18.653877 3.7236824
4.0223646 17.069019 3.7259104
3.7037611 15.717015 3.7267616
3.4299889 14.555255 3.7295444
3.1922879 13.557161 3.7348449
2.9801219 12.656125 3.7347226
7.5639477 31.554628 3.4173508
3.6552486 15.732371 3.7276611
3.9687212 17.081572 3.7259104
4.7891645 20.58021 3.7254264
7.5361328 32.799244 3.5442917
6.5152245 28.378674 3.5782082
5.9339886 25.846958 3.7270558
5.2608175 22.914795 3.7237663
4.7253675 20.598993 3.7261209
4.2819862 18.68115 3.7236824
3.9150381 17.093954 3.7259104
3.6040657 15.736177 3.725862
3.3384681 14.576518 3.7295444
3.1070433 13.576952 3.7348449
2.9014006 12.678349 3.7358267
7.67345 32.922623 3.5602117
6.4755731 27.805134 3.5084395
6.0196519 25.847477 3.7298393
5.3318839 22.894306 3.7231405
4.337986 18.656134 3.7213936
6.1847043 25.820702 3.7315092
4.9202123 20.557373 3.7268155
6.3420835 25.7621 3.7287259
5.6229315 22.840841 3.7256434
5.0492802 20.526054 3.7268155
4.5758257 18.6154 3.7244451
4.1830554 17.030352 3.7259104
3.852654 15.685197 3.7276611
3.5660889 14.518514 3.7285764
3.3171544 13.515217 3.7317369
3.0992687 12.627477 3.7347226
7.0720282 28.343279 3.5899177
6.3098311 25.288546 3.6630361
5.6917911 22.811563 3.7237663
5.1108813 20.498625 3.7247319
4.6314373 18.589502 3.7221565
4.2374821 17.020922 3.7267418
3.9028525 15.676797 3.7285607
3.6126199 14.511003 3.7295444
3.3586648 13.500979 3.730701
3.1370678 12.610216 3.7325139
6.8453412 27.806377 3.5191731
5.4802284 22.879564 3.7262692
4.4569459 18.636147 3.7229195
4.0759687 17.056297 3.7259104
3.7531192 15.705302 3.7267616
3.4747965 14.540633 3.7285764
3.2330682 13.53955 3.7327728
3.0189745 12.642961 3.7336183
6.3630085 26.20146 3.7894053
5.5492826 22.850718 3.7243919
4.9847708 20.541815 3.7268155
4.5145454 18.618235 3.7221565
4.1295323 17.043409 3.7259104
3.8024404 15.693434 3.7267616
3.5213737 14.533416 3.7295444
3.275588 13.529326 3.7327728
3.0577741 12.629678 3.7325139
4.2903981 15.554981 3.7240632
6.8378201 24.7402 3.6073668
5.6206264 18.327024 3.7244451
5.1354599 16.755486 3.7234166
4.7295732 15.431197 3.7249625
4.3775415 14.282623 3.7256725
4.0757122 13.306132 3.7317369
3.8068752 12.42845 3.7336183
5.9158621 19.277687 3.555268
6.6790786 21.510149 3.5673318
5.8981733 19.006935 3.5087349
5.6770124 18.305527 3.7236824
5.1903896 16.746744 3.7250791
4.7791824 15.419987 3.725862
4.425837 14.279922 3.7285764
4.1163516 13.289572 3.730701
3.8447642 12.412757 3.7325139
6.6613369 21.693424 3.5942385
4.2877154 14.309846 3.7256725
3.9920278 13.331478 3.7317369
3.727608 12.448442 3.7325139
6.6115179 21.774729 3.6042504
5.9376254 19.567583 3.6052737
5.5630236 18.344593 3.7244451
5.0873342 16.786514 3.7267418
4.6810708 15.445979 3.7249625
4.333775 14.300019 3.7266405
4.0327702 13.315173 3.730701
3.7678115 12.440348 3.7336183
6.8875427 21.465054 3.5704606
5.8617263 18.279058 3.3844151
5.8600683 18.284864 3.7305484
5.347991 16.697083 3.7250791
4.9231086 15.370547 3.7249625
4.5578556 14.230183 3.7266405
4.2414184 13.250187 3.730701
3.9580634 12.364985 3.7292011
6.868402 21.176491 3.5260332
5.8826818 18.148134 3.3635795
5.8412452 18.031029 3.6824861
5.4016256 16.683922 3.7259104
4.9713726 15.355005 3.7249625
4.6013436 14.212102 3.7256725
4.2830238 13.236797 3.730701
4.0004401 12.363463 3.7325139
4.6336422 15.464344 3.725862
6.7229538 21.413673 3.554817
5.8812013 18.744005 3.4635909
5.7403665 18.306335 3.7274969
5.2429752 16.730354 3.7250791
4.8252707 15.397458 3.7240632
4.4718375 14.26965 3.7295444
4.1615458 13.287637 3.733809
3.8837409 12.400618 3.7325139
6.8882036 21.701227 3.6061275
5.8650184 18.48888 3.4198358
5.8524337 18.460388 3.7625899
5.2966914 16.717531 3.7259104
4.8759742 15.389654 3.725862
4.5143003 14.248132 3.7276084
4.2021031 13.270813 3.7327728
3.92384 12.39202 3.7336183
5.0300813 16.787422 3.7234166
5.9610224 19.869122 3.6573629
6.8798165 24.29657 3.5489142
6.0632238 21.412714 3.5247817
5.7543812 20.335552 3.7261209
5.2130623 18.434853 3.7221565
4.7657752 16.864361 3.7234166
4.3901672 15.535218 3.725862
4.0634723 14.379164 3.7266405
3.7821336 13.392538 3.7317369
3.5326612 12.509156 3.7336183
6.9910297 24.396687 3.5667284
5.8269143 20.34767 3.7316771
5.2720318 18.422159 3.7229195
4.8198085 16.853067 3.7242479
4.4378791 15.517602 3.7249625
4.1107607 14.373791 3.7285764
3.8241887 13.380589 3.7317369
5.5019813 18.350695 3.7221565
6.1074848 22.097744 3.6311572
5.6264968 20.371307 3.7261209
5.1013098 18.482384 3.725208
4.6607609 16.897743 3.7242479
3.9740784 14.408154 3.7276084
3.4539943 12.531105 3.7336183
6.7789068 24.230328 3.5361102
6.0874643 21.758856 3.5785952
5.6904674 20.353531 3.7261209
5.1561785 18.454922 3.7229195
4.7127709 16.87925 3.7234166
4.3413405 15.548933 3.725862
4.0203667 14.399335 3.7285764
3.740041 13.404354 3.7317369
3.493345 12.520192 3.7336183
3.5698292 12.490602 3.7314095
3.6989379 13.419762 3.7327728
7.0346947 23.70315 3.474874
5.4431887 18.364126 3.7213936
4.9784288 16.806892 3.7242479
3.6482391 12.467926 3.7314095
4.5861435 15.482561 3.7267616
3.9512224 13.347658 3.7327728
3.6895726 12.463777 3.7336183
4.2449436 14.330688 3.7276084
3.9081855 13.356297 3.7317369
5.981461 20.167223 3.7087579
4.5352902 15.489411 3.7249625
4.1977201 14.336504 3.7256725
7.0863919 24.439278 3.5761921
5.9796166 20.635736 3.7879336
5.3298802 18.405506 3.7229195
4.8727298 16.837841 3.7242479
4.4876904 15.507327 3.725862
4.1526599 14.349621 3.7256725
3.865133 13.364799 3.730701
3.6101203 12.48302 3.7325139
4.9267025 16.826204 3.7250791
5.3887815 18.392439 3.7236824
6.0034103 20.476984 3.7622361
7.0605497 24.067211 3.5249765
2.4636025 14.753542 3.7305124
2.1386437 12.821266 3.7336183
2.2909436 13.734311 3.733809
2.6608341 15.934685 3.7285607
5.9685826 34.917645 3.7307231
2.8889735 17.30092 3.7267418
5.1033664 29.887331 3.7260399
3.9606225 23.194971 3.7268949
3.5575635 20.856438 3.730288
3.2226083 18.912655 3.7274969
2.9446247 17.299475 3.7284043
2.7102273 15.922405 3.7276611
2.3334322 13.723237 3.7327728
2.1776233 12.806904 3.7314095
3.1612344 18.911068 3.725208
4.4623375 26.133213 3.7259424
2.5092885 14.741903 3.7295444
3.888387 23.211195 3.7275207
6.9119802 41.97921 3.7341282
5.741971 34.911285 3.7261147
4.9141922 29.910973 3.725064
4.2980509 26.160736 3.7259424
3.8160884 23.227198 3.7281466
3.425173 20.870602 3.728899
3.1024435 18.92478 3.725971
2.8352389 17.313772 3.7275732
2.6120205 15.950659 3.7303598
2.4147317 14.745889 3.7266405
2.2471609 13.737627 3.7327728
2.0995953 12.83551 3.7358267
7.0477867 41.980865 3.7362266
5.8601718 34.944073 3.7315609
5.0120721 29.918879 3.7279913
4.3789072 26.13929 3.724829
3.4907229 20.859739 3.728899
8.8456411 50.735512 3.6211624
2.4189394 13.7045 3.7317369
6.0802979 34.91048 3.7319801
7.4790416 41.359642 3.6890123
6.30094 34.879421 3.7328179
5.3827019 29.826183 3.7245762
4.7105465 26.101692 3.7276125
4.1804543 23.164391 3.7281466
3.7532709 20.818106 3.7295935
3.398622 18.86985 3.725208
3.106149 17.263252 3.7267418
2.8608596 15.89999 3.7285607
2.6474268 14.71378 3.7285764
2.3009477 12.800948 3.7358267
7.3918099 40.156372 3.5837419
6.4061689 34.835979 3.7303042
2.0586522 12.838246 3.7347226
5.478529 29.820843 3.7260399
4.7918081 26.082869 3.7270558
2.4619815 13.696834 3.7317369
2.2580478 12.792969 3.7314095
5.198596 29.878975 3.7270157
4.5444155 26.119064 3.7259424
4.0348268 23.190199 3.7281466
3.6237426 20.849037 3.7309825
3.2793212 18.886963 3.7244451
2.9969518 17.278574 3.7259104
2.7615676 15.921494 3.7294602
2.555589 14.733948 3.7295444
2.3758736 13.712032 3.7317369
2.2191591 12.807576 3.7336183
7.5622683 42.583466 3.7960315
6.1850786 34.863789 3.7290473
5.2875876 29.835131 3.7236004
4.6257572 26.100761 3.7253857
4.1076608 23.17741 3.7281466
3.6885371 20.833672 3.730288
3.3406913 18.888166 3.7267339
3.0532615 17.28063 3.7284043
2.8108945 15.908899 3.7285607
2.6011894 14.722025 3.7285764
7.3011537 41.876873 3.7309806
2.2039917 13.744619 3.7327728
2.8048031 18.971178 3.725971
2.5606616 15.951088 3.7285607
2.2590084 15.992661 3.7276611
2.0915234 14.806951 3.7295444
1.9445355 13.783719 3.7327728
1.8157684 12.870961 3.7336183
6.120657 42.109921 3.7348275
5.0897851 35.060547 3.731142
4.351253 30.010069 3.7265277
3.8053353 26.24494 3.7270558
3.3770468 23.291086 3.7275207
3.0323157 20.939251 3.730288
2.7440653 18.97212 3.7244451
2.5072789 17.356392 3.7259104
2.3109114 15.997057 3.7303598
2.1380305 14.800306 3.7295444
1.9872773 13.773719 3.7317369
1.8567439 12.868999 3.7347226
6.2517476 42.0826 3.7341282
5.1969867 35.024712 3.7290473
4.4455104 29.99625 3.7265277
3.8871861 26.228937 3.7264991
3.4490426 23.272547 3.7262692
2.45274 17.364183 3.7259104
3.0963528 20.917931 3.7282045
2.685549 18.988424 3.725971
3.3038592 23.30158 3.7275207
5.7202983 42.142044 3.7327292
7.1396556 52.598598 3.7322633
4.2517791 23.143372 3.7268949
4.7596607 35.110905 3.7315609
7.3048635 52.575905 3.7322633
5.8581471 42.163334 3.7362266
4.8655672 35.064255 3.7282095
4.1631541 30.040749 3.7270157
3.640903 26.272255 3.7276125
3.2300963 23.307932 3.7268949
2.8990715 20.946184 3.7282045
2.6253445 18.992878 3.725208
2.3992467 17.379555 3.7275732
2.2098212 16.007401 3.7294602
2.0444653 14.809604 3.7285764
1.9006956 13.785933 3.7317369
1.7753243 12.876602 3.7336183
7.4722447 52.568501 3.7333856
5.9855304 42.109215 3.733079
4.9812927 35.088181 3.732399
4.2586246 30.035383 3.7279913
3.72509 26.272451 3.7292826
2.9654136 20.940874 3.728899
2.37024 14.764897 3.7295444
2.5629361 17.356171 3.7275732
2.1850834 14.797357 3.7305124
2.27565 14.767992 3.7266405
2.1170013 13.754378 3.7317369
1.9767774 12.843329 3.7325139
6.6605368 42.100525 3.741123
5.5293345 34.989891 3.7307231
4.7273984 29.949102 3.7260399
4.13483 26.195051 3.7270558
3.6700733 23.250715 3.7281466
3.2939727 20.891712 3.728899
2.9810314 18.928385 3.7229195
2.7270062 17.335112 3.7284043
2.5099316 15.955205 3.7276611
2.323843 14.772271 3.7295444
2.1608009 13.751475 3.7327728
2.0183096 12.844651 3.7347226
8.3517437 51.736851 3.684849
6.7800655 42.000717 3.7341282
5.6385984 34.968422 3.7303042
4.8239875 29.949781 3.7279913
4.2158432 26.174109 3.7259424
3.7412143 23.227369 3.7262692
3.3602154 20.885151 3.7295935
3.0429742 18.934433 3.725971
2.7814524 17.326458 3.7284043
2.4615753 15.974567 3.7303598
2.3605869 15.985864 3.7294602
2.672533 17.343592 3.7284043
3.2301269 20.913635 3.7309825
2.0311024 13.77123 3.7327728
1.8971637 12.863102 3.7347226
6.385119 42.070633 3.7348275
5.3111682 35.035744 3.7319801
4.540319 29.986063 3.7270157
3.9719398 26.232262 3.7287259
3.5233214 23.269407 3.7275207
3.1632311 20.915892 3.7295935
2.8632157 18.954506 3.7244451
2.6162822 17.340296 3.7259104
2.4107962 15.978369 3.7294602
2.2321389 14.794257 3.7314804
2.0743558 13.764781 3.7327728
1.9369919 12.853277 3.7336183
6.5129838 42.022804 3.7323794
5.4181671 34.999229 3.7298853
4.633894 29.967728 3.7265277
4.0519099 26.203997 3.7264991
3.5964069 23.258224 3.7275207
2.9233472 18.949299 3.725208
3.8179431 20.802336 3.728899
4.014576 20.769299 3.7295935
3.1589577 17.24571 3.7250791
6.7519927 31.656937 3.4089718
6.3235288 29.673456 3.7284794
5.525619 25.929228 3.7259424
4.9018855 23.002329 3.7250178
4.4036903 20.682234 3.7282045
3.9880273 18.746105 3.7236824
3.6460552 17.153341 3.7259104
3.3580689 15.798471 3.7276611
3.1090987 14.627158 3.7295444
2.8917973 13.616521 3.7327728
6.4142003 29.641806 3.7270157
5.6053753 25.903999 3.724829
4.9716182 22.975231 3.7231405
4.4686437 20.668297 3.7282045
2.6995039 12.711075 3.7325139
4.7556634 23.024935 3.7237663
4.2752466 20.717211 3.7295935
3.8725429 18.78233 3.725971
3.5382061 17.175911 3.7259104
3.2587383 15.819259 3.7276611
3.0179155 14.650206 3.7305124
2.8061852 13.634422 3.7327728
2.6211348 12.735316 3.7347226
6.8070259 32.413788 3.4881527
6.2294602 29.689291 3.7279913
5.4425058 25.938705 3.724829
4.8312201 23.025349 3.7262692
4.3386936 20.695965 3.7282045
3.9291153 18.758541 3.7236824
3.593751 17.172369 3.7275732
3.3100166 15.816573 3.7294602
3.0631306 14.636853 3.7295444
2.8490055 13.625539 3.7327728
2.6587706 12.71573 3.7314095
4.047729 18.73732 3.7244451
5.360189 25.951797 3.7242723
3.7015762 17.149448 3.7275732
3.1542168 14.613525 3.7285764
4.596704 20.63212 3.7268155
4.1645255 18.707687 3.7236824
3.8084066 17.122034 3.7267418
3.5059681 15.762316 3.7267616
3.2459736 14.593418 3.7285764
3.0208378 13.592434 3.733809
2.8200152 12.688821 3.7336183
5.1167364 22.947395 3.7237663
6.5627255 29.003071 3.6543195
5.8510108 25.857744 3.7259424
5.1914186 22.942768 3.7256434
4.6597619 20.609896 3.7254264
4.2241416 18.698339 3.7244451
3.8639011 17.117619 3.7284043
3.5580442 15.76263 3.7294602
3.2926583 14.586934 3.7295444
3.0618246 13.575339 3.7317369
2.8598642 12.679899 3.7336183
3.4571781 18.855217 3.7244451
7.4690771 32.981827 3.5614686
5.771471 25.883732 3.7270558
6.6029091 29.612541 3.7284794
7.456399 33.412792 3.605458
2.9304881 13.588486 3.7275927
2.7394235 12.702532 3.7325139
6.6282539 30.172134 3.7962966
5.6824775 25.866915 3.7220454
5.04462 22.963356 3.7237663
4.5310192 20.642612 3.7261209
4.1074152 18.728348 3.725208
3.7554345 17.137735 3.7275732
3.4581006 15.780867 3.7285607
3.2001109 14.603544 3.7285764
2.9789474 13.605631 3.7348449
2.7793159 12.693862 3.7325139
3.4085064 15.791653 3.7285607
6.135355 29.704826 3.7275035
4.9548554 26.048353 3.7264991
4.3956318 23.108437 3.7256434
3.9493074 20.781807 3.7295935
3.577045 18.840839 3.725971
3.2679822 17.229366 3.7259104
3.0091319 15.864662 3.7267616
2.7859814 14.688175 3.7285764
2.5909598 13.673022 3.7317369
2.4186265 12.763584 3.7314095
5.6672735 29.793633 3.7270157
6.7364697 34.78577 3.7315609
5.7623529 29.783478 3.7279913
5.0381689 26.04044 3.7276125
4.4674563 23.090635 3.7250178
3.6362176 18.829508 3.725971
3.3235757 17.226698 3.7275732
3.0611722 15.866613 3.7294602
2.8321118 14.679351 3.7285764
2.6339021 13.664814 3.7317369
6.6219449 34.779408 3.7286284
6.877501 33.268677 3.5778074
2.6936383 14.705391 3.7285764
2.9122014 15.898592 3.7303598
2.5049989 13.689032 3.7317369
2.3390753 12.782311 3.7325139
6.5141139 34.807861 3.7294662
5.5736461 29.811289 3.7270157
4.8700857 26.048218 3.7242723
4.3251905 23.133781 3.7275207
3.8847229 20.797983 3.730288
3.5171168 18.848124 3.725208
3.2159896 17.251087 3.7284043
2.9599912 15.877871 3.7276611
2.741246 14.704486 3.7305124
2.5486994 13.684893 3.7327728
2.3806283 12.782458 3.7347226
2.4601679 12.763473 3.7336183
2.7212181 13.655574 3.733809
2.5410652 12.751534 3.7347226
8.2507439 40.517502 3.6292074
6.9387054 34.104828 3.6653674
6.0420046 29.723955 3.7275035
5.2809997 25.980152 3.7259424
2.9258068 14.668879 3.7305124
4.6856661 23.051376 3.7256434
3.8119555 18.786705 3.7244451
3.4850063 17.190775 3.7267418
3.2097991 15.833238 3.7285607
2.9711046 14.655811 3.7295444
2.7633379 13.64317 3.7327728
4.2093563 20.726677 3.728899
3.1615665 15.850887 3.7303598
2.5811129 12.743487 3.7347226
3.7536855 18.802439 3.725208
3.4309828 17.201639 3.7267418
6.8933706 35.006424 3.7575357
5.8528261 29.749645 3.7260399
4.541501 23.08424 3.7262692
4.0782847 20.748852 3.7282045
3.6938407 18.810286 3.7244451
3.3791852 17.22385 3.7292356
3.1102531 15.853092 3.7285607
2.8789613 14.67419 3.7295444
2.6783044 13.664056 3.733809
5.1168938 26.008936 3.7253857
2.4995136 12.751908 3.7325139
5.1993551 25.996614 3.7259424
4.1449928 20.743664 3.7295935
7.0040932 34.988495 3.7579546
5.9501519 29.750576 3.7284794
4.6147747 23.073732 3.7268949
1.3035319 17.499813 3.7284043
1.4281757 19.128078 3.7267339
1.2003475 16.114571 3.7294602
1.1108165 14.912623 3.7295444
1.0316055 13.881928 3.7327728
1.5787169 21.094744 3.7295935
0.96357745 12.966501 3.7347226
3.3277884 42.37812 3.7309806
1.8348372 23.47093 3.7287722
2.3618081 30.211853 3.7240882
2.0665345 26.434765 3.7264991
1.6443673 21.081823 3.7282045
1.4885659 19.127413 3.7274969
1.3581996 17.49173 3.7275732
1.2512685 16.114605 3.7303598
1.1573598 14.905191 3.7285764
1.0752118 13.878618 3.7327728
1.0040113 12.959577 3.7336183
2.7657719 35.299992 3.7290473
1.7602056 23.46476 3.7268949
1.5127196 21.103527 3.730288
2.2680714 30.234961 3.7260399
1.0996038 16.12957 3.7312593
1.0178883 14.930925 3.7324483
0.94462514 13.891992 3.733809
0.88182729 12.968464 3.7336183
3.8165514 52.855556 3.7260911
3.0646117 42.441914 3.7348275
2.544208 35.320641 3.7294662
2.1733589 30.245895 3.7265277
1.9006845 26.45118 3.7270558
1.6873299 23.481995 3.7287722
1.3683562 19.136387 3.7274969
1.2477131 17.492113 3.7259104
1.1505481 16.129923 3.7321589
1.064514 14.923782 3.7314804
0.98881173 13.896662 3.7358809
0.92311025 12.973299 3.7358267
3.9816837 52.831371 3.7252493
3.1958356 42.404263 3.7323794
2.6554565 35.316441 3.7298853
1.9834775 26.441128 3.7264991
4.3206987 52.892796 3.7314217
4.6511974 52.84473 3.7300189
2.8773024 35.299061 3.7298853
3.0997305 35.288208 3.7307231
2.6485193 30.211981 3.7270157
2.3141973 26.398331 3.7242723
2.0549257 23.440788 3.7268949
1.8426394 21.061468 3.72751
1.6684271 19.108622 3.7267339
1.522653 17.474255 3.7267418
1.4027491 16.098213 3.7294602
1.2987953 14.905221 3.7314804
3.7280872 42.356785 3.7320297
1.2062997 13.871718 3.733809
4.8208141 52.869595 3.7328246
3.8607748 42.340897 3.7316799
3.2102163 35.274338 3.7303042
2.3974769 26.394875 3.724829
2.1292717 23.442087 3.7281466
1.9080855 21.047726 3.7261209
1.7273887 19.091555 3.7244451
1.1943507 17.519367 3.7308984
1.5782462 17.477179 3.7284043
1.1264389 12.953368 3.7347226
1.0860604 12.960675 3.7358267
1.1623918 13.87159 3.7327728
1.2513132 14.901492 3.7295444
2.4589627 30.231983 3.7275035
2.1486082 26.416298 3.724829
1.9076034 23.453236 3.7268949
1.7099521 21.068701 3.7268155
1.5480151 19.114815 3.725971
1.41346 17.491276 3.7284043
1.30126 16.102823 3.7285607
1.2051181 14.913087 3.7314804
1.1194283 13.882874 3.7348449
1.0447198 12.956358 3.7336183
4.4790859 52.787518 3.7249689
3.5963488 42.384167 3.7334287
2.9881835 35.289848 3.7298853
2.5519211 30.200373 3.7245762
2.2312531 26.405472 3.7242723
1.9819397 23.455002 3.7281466
1.777126 21.075001 3.728899
1.6083875 19.113768 3.7267339
1.4684035 17.48675 3.7284043
1.3528203 16.110308 3.7312593
3.4605823 42.363487 3.7306309
1.3079629 19.136673 3.7267339
1.9884313 35.344334 3.7282095
1.6130091 23.479296 3.7275207
0.68261492 13.907328 3.733809
0.63742375 12.986621 3.7347226
2.8185675 52.898182 3.7246883
2.2604992 42.424492 3.7288821
1.8778059 35.358349 3.7290473
1.6020453 30.265627 3.7245762
1.4015739 26.478348 3.7264991
1.2440134 23.501736 3.7275207
1.1142672 21.120422 3.728899
0.73628289 14.947458 3.7324483
1.0070097 19.150938 3.725971
0.84611583 16.14485 3.7312593
0.78283179 14.93732 3.7305124
0.72589958 13.897397 3.7317369
0.67801869 12.980715 3.7336183
2.9820399 52.841259 3.7213216
2.3917477 42.381378 3.7257345
1.6968974 30.256483 3.7240882
1.4843075 26.465906 3.7253857
1.3185037 23.509546 3.729398
0.91861153 17.528151 3.7292356
0.7948159 16.135752 3.7285607
0.86296326 17.519226 3.7267418
0.94703436 19.157927 3.7267339
1.454017 16.10149 3.7312593
2.4825869 52.839115 3.7193577
1.9935215 42.429897 3.7281826
1.6552354 35.361504 3.7282095
1.4111106 30.259233 3.7226245
1.23481 26.47872 3.7253857
1.096324 23.509089 3.7275207
0.9813599 21.123074 3.7282045
0.88666183 19.156885 3.725971
0.8082813 17.529669 3.7284043
0.74429971 16.142063 3.7294602
0.688963 14.941944 3.7305124
0.63856584 13.901684 3.7317369
0.59679842 12.9924 3.7358267
2.6507709 52.874893 3.7224438
2.1270082 42.427402 3.7285323
1.7663186 35.356129 3.7282095
1.5065604 30.262581 3.7236004
1.317989 26.47471 3.7253857
1.1707637 23.517366 3.729398
1.0481054 21.127754 3.7295935
1.1810533 21.124685 3.730288
1.0676061 19.155519 3.7274969
0.973239 17.517365 3.7275732
0.89639974 16.134331 3.7294602
0.99775636 16.128382 3.7294602
0.92381549 14.933152 3.7314804
0.85684526 13.889939 3.7317369
0.8008005 12.981423 3.7358267
2.7968347 42.444427 3.7334287
2.3230155 35.347836 3.7307231
1.9830171 30.254993 3.7260399
1.7347096 26.466553 3.7276125
1.5394975 23.488192 3.7281466
1.3798364 21.108686 3.7295935
1.2475817 19.136772 3.725971
1.1393062 17.523033 3.7308984
1.0489259 16.132944 3.7312593
0.97047299 14.926304 3.7305124
0.90097749 13.894891 3.733809
0.84083253 12.967334 3.7325139
3.6515818 52.883202 3.7272134
2.9268699 42.38773 3.7292318
2.4318662 35.308617 3.7273715
2.0788722 30.260496 3.7275035
1.8173048 26.453068 3.7264991
1.0837672 17.518715 3.7292356
1.445875 21.100315 3.728899
1.1876987 19.144514 3.7267339
1.4654536 23.488968 3.7275207
0.82975477 14.934787 3.7305124
0.76998323 13.902764 3.733809
0.71922064 12.986198 3.7358267
3.1513531 52.88739 3.7252493
2.5263026 42.397518 3.7278328
2.1008742 35.361736 3.7307231
1.7926465 30.262892 3.7255521
1.5674452 26.461113 3.7253857
1.3918873 23.497402 3.7281466
1.2476447 21.124804 3.7309825
1.1277796 19.152071 3.7274969
1.0287253 17.522034 3.7292356
0.94753951 16.139215 3.7312593
0.87666965 14.932107 3.7305124
0.81320453 13.892563 3.7317369
0.75956494 12.976198 3.7336183
3.3134904 52.813515 3.7207603
2.6619806 42.429142 3.7313302
2.2109621 35.339081 3.7290473
1.8867224 30.241261 3.7236004
1.6513073 26.467916 3.7270558
1.3135148 21.112915 3.7295935
1.3445678 14.889471 3.7285764
2.7430606 30.199558 3.7265277
1.1671276 12.949765 3.7347226
1.6414256 13.826983 3.733809
1.532305 12.907778 3.7336183
6.4771614 52.676239 3.7317023
5.1927195 42.230373 3.734478
4.3146863 35.140301 3.7286284
3.689815 30.094555 3.7260399
3.226341 26.314407 3.7259424
2.8645546 23.363638 3.7281466
1.7658806 14.853215 3.7305124
2.5687478 20.981316 3.7268155
2.1254904 17.411213 3.7267418
1.9581151 16.040136 3.7294602
1.8111235 14.836038 3.7276084
1.6834537 13.810252 3.730701
1.5733136 12.906715 3.7347226
6.6501083 52.715012 3.7359107
5.3258638 42.217804 3.7348275
4.427547 35.146305 3.7307231
2.3266933 19.031773 3.725208
3.7858279 30.094629 3.7275035
1.9077141 16.046209 3.7294602
2.2654991 19.02729 3.7229195
4.926816 42.258205 3.7341282
4.0961094 35.186474 3.7307231
3.5001955 30.113199 3.7255521
3.0627697 26.349895 3.7281692
2.7177012 23.381174 3.7281466
2.4377766 21.004868 3.7282045
2.2061639 19.038216 3.7236824
2.0160513 17.424223 3.7267418
1.857294 16.052122 3.7294602
2.0698574 17.410032 3.7250791
1.7183169 14.850979 3.7285764
1.4917467 12.912527 3.7336183
6.3125916 52.70425 3.7322633
5.0590758 42.238564 3.7337785
4.2085204 35.189232 3.732399
3.5966644 30.117823 3.7275035
3.1441257 26.328346 3.7264991
2.7902048 23.364674 3.7268949
2.5037534 20.997107 3.7282045
1.5975354 13.828233 3.7327728
3.3084998 26.300211 3.7253857
2.9369531 23.346682 3.7268949
2.6356316 20.980961 3.7282045
3.4736826 26.278906 3.7253857
3.0846214 23.335602 3.7281466
2.7663751 20.956175 3.7268155
2.5059571 19.008999 3.725208
2.2900014 17.394285 3.7275732
2.110218 16.028696 3.7312593
1.9518807 14.826005 3.7295444
1.8145428 13.801435 3.7327728
1.6948849 12.891315 3.7347226
3.9738019 30.062378 3.7265277
4.0671606 30.041878 3.7255521
3.157387 23.32188 3.7275207
2.8332529 20.955189 3.7282045
2.5651379 18.997141 3.7244451
2.3435898 17.379251 3.7259104
2.160042 16.018126 3.7303598
1.9984479 14.819799 3.7295444
1.8584079 13.799495 3.733809
1.7343495 12.878306 3.7325139
1.2495261 13.864012 3.7327728
3.559943 26.29534 3.7292826
4.649334 35.125683 3.7315609
5.5899706 42.175606 3.7341282
6.971231 52.597031 3.7305801
2.385983 19.020472 3.7244451
2.1801789 17.404448 3.7267418
2.008497 16.033905 3.7294602
1.8582058 14.834125 3.7285764
1.7277905 13.812562 3.7327728
1.6133761 12.897895 3.7336183
5.4569345 42.189007 3.7337785
4.5404892 35.151955 3.7328179
3.8808622 30.086527 3.7279913
3.3911078 26.28969 3.7253857
3.0112953 23.345177 3.7281466
2.7010288 20.96867 3.72751
2.4447238 19.005095 3.7229195
2.2348459 17.397514 3.7267418
2.0583625 16.023649 3.7285607
1.9052938 14.832064 3.7295444
1.7706838 13.803234 3.7317369
1.6543772 12.896575 3.7347226
6.1566892 52.807053 3.7381551
6.8202906 52.729473 3.7384355
1.5545163 13.837023 3.733809
1.2481005 12.938351 3.7336183
5.3096824 52.730499 3.7263715
4.2628446 42.334347 3.734478
3.5417256 35.2346 3.7294662
3.0271623 30.168413 3.7260399
2.6469235 26.378988 3.7259424
2.348927 23.409184 3.7262692
2.1067605 21.032728 3.7268155
1.9072431 19.074425 3.7244451
1.3366109 13.855887 3.7327728
1.7413377 17.445953 3.7250791
1.4859923 14.887723 3.7314804
1.3801339 13.85162 3.7327728
1.2887415 12.934366 3.7336183
5.4852071 52.808811 3.7331049
4.3933506 42.296967 3.7323794
3.6528111 35.227257 3.7298853
3.1219242 30.158756 3.7260399
2.7297823 26.370544 3.7259424
2.4228642 23.405619 3.7268949
1.6049291 16.079315 3.7294602
1.439214 14.892319 3.7314804
1.5544066 16.084278 3.7294602
1.6876502 17.463022 3.7275732
4.9831367 52.814461 3.7300189
1.4507443 12.913329 3.7325139
3.9952703 42.344425 3.733079
3.3198986 35.252193 3.7290473
2.8371785 30.182886 3.7255521
2.4796455 26.379326 3.7237155
2.2029066 23.435282 3.7281466
1.9753033 21.053394 3.7282045
1.7880905 19.093853 3.725971
1.6316878 17.456551 3.7250791
1.5027804 16.077438 3.7267616
1.3916988 14.889036 3.7295444
1.2937927 13.867712 3.7348449
1.2078047 12.946035 3.7347226
5.1532936 52.842232 3.7331049
4.1275063 42.323734 3.7323794
3.431401 35.249512 3.7298853
2.9323707 30.177774 3.7260399
2.5644217 26.391117 3.7264991
2.2761374 23.424311 3.7275207
1.8480666 19.08814 3.725971
2.1728263 21.026007 3.7268155
1.9671576 19.06834 3.7244451
2.0414348 21.047085 3.7282045
1.6554358 16.074194 3.7294602
2.5711715 23.401714 3.7287722
2.3048928 21.011938 3.7268155
1.9065329 17.436546 3.7267418
1.7555523 16.055727 3.7276611
1.6249723 14.861483 3.7285764
1.5114576 13.845679 3.7348449
1.4114203 12.929289 3.7358267
1.6720867 14.860161 3.7295444
2.8945532 26.344997 3.724829
4.7913399 42.249722 3.7320297
3.9842055 35.187309 3.7294662
3.4055748 30.124048 3.7255521
2.9777491 26.33971 3.7253857
2.6446774 23.393522 3.7287722
2.3708923 21.004593 3.7268155
2.1459031 19.041151 3.7229195
1.9608644 17.426584 3.7259104
1.7969389 17.448181 3.7267418
5.9876137 52.798382 3.736191
3.3117878 30.14249 3.7265277
2.0869281 19.055603 3.7244451
4.6616411 42.29229 3.734478
1.5323585 14.879121 3.7305124
1.4244335 13.854903 3.7348449
1.3293695 12.930253 3.7336183
5.6515083 52.795284 3.7333856
4.532146 42.338421 3.7372758
3.7638853 35.219563 3.7303042
3.8732064 35.195698 3.7290473
2.8126142 26.361837 3.7259424
2.4968021 23.401819 3.7275207
2.2397053 21.026911 3.7282045
3.2162337 30.14485 3.7255521
5.8204017 52.805035 3.7353494
2.0266376 19.058163 3.7236824
1.3699844 12.926013 3.7336183
1.8064198 16.054005 3.7285607
1.5786853 14.870373 3.7295444
1.7059261 16.068914 3.7294602
1.8517449 17.44245 3.7267418
1.4675456 13.846518 3.733809
-0.1044379 13.915951 3.7317369
-0.27321622 42.308464 3.7134938
-0.20567359 30.215986 3.7133546
-0.180103 26.459349 3.7187054
-0.15989561 23.490635 3.7206376
-0.14751221 21.129585 3.7254264
-0.13705832 19.153345 3.7213936
-0.1284887 17.528259 3.7242479
-0.11836419 16.147085 3.7267616
-0.10950122 14.938012 3.7256725
-0.23396012 35.276131 3.7152221
-0.086086899 23.48707 3.7200119
-0.17408305 52.49411 3.6910212
-0.14028074 42.301144 3.7127943
-0.12315649 35.280666 3.715641
-0.1107958 30.228394 3.7148182
-0.096968234 26.455824 3.7181487
-0.081089675 21.118126 3.7233429
-0.076857828 19.145826 3.7198677
-0.073457606 17.536402 3.7259104
-0.097491391 12.990355 3.7314095
-0.21992402 16.153818 3.7285607
-0.13834591 12.99383 3.7325139
-0.45534709 35.254074 3.7131274
-0.067622848 16.143482 3.725862
-0.39541996 30.206158 3.7123787
-0.34619439 26.445814 3.7170353
-0.30759323 23.497068 3.721889
-0.2801671 21.120363 3.7240374
-0.25724241 19.140327 3.719105
-0.23872699 17.534931 3.7259104
-0.20341103 14.940909 3.7266405
-0.19171333 13.903431 3.7286289
-0.179111 12.989486 3.7314095
-0.4062193 42.315369 3.7141931
-0.34483099 35.279194 3.715641
-0.30052844 30.207251 3.7123787
-0.26319465 26.454693 3.7181487
-0.23366015 23.486067 3.7200119
-0.2137385 21.113262 3.7226484
-0.19727547 19.156744 3.7221565
-0.18355967 17.527769 3.7242479
-0.16913655 16.150534 3.7276611
-0.15651533 14.945356 3.7276084
-0.14803617 13.903965 3.7286289
-0.062574431 14.938283 3.7256725
-0.58502233 13.900174 3.730701
-0.6255582 14.925309 3.7256725
-0.6758641 16.125566 3.7249625
-0.73386604 17.509445 3.7234166
-0.79874259 19.137175 3.7213936
-0.87665325 21.092194 3.7219536
-0.97093362 23.459244 3.7187605
-1.0928805 26.405668 3.7142518
-1.2492132 30.182905 3.7123787
-1.4514972 35.219162 3.7122896
-1.7193285 41.895538 3.6802688
-0.54642385 12.983072 3.7325139
-0.85868001 19.130646 3.7206306
-0.94238007 21.077528 3.7198701
-1.0447993 23.460026 3.7193861
-1.1767069 26.42189 3.7170353
-1.3440235 30.178833 3.7123787
-1.5619512 35.210453 3.7118704
-1.8046706 40.842979 3.5882883
-0.53889287 42.293961 3.7124445
-0.50563002 12.984725 3.7325139
-0.54089582 13.890361 3.7275927
-0.056666266 12.986753 3.7303054
-0.0091717485 52.606121 3.6988769
-0.0073709735 42.27747 3.7106957
-0.012309827 35.284855 3.7160599
-0.015811026 30.208742 3.7123787
-0.013842722 26.448076 3.7170353
-0.012305442 23.510931 3.7237663
-0.014741508 21.122215 3.7240374
-0.016707089 19.1499 3.7206306
-0.018360062 17.536547 3.7259104
-0.016905796 16.147511 3.7267616
-0.015648037 14.946168 3.7276084
-0.57866168 14.927201 3.7256725
-0.62580019 16.14319 3.7285607
-0.67900145 17.515574 3.7242479
-0.7384606 19.135664 3.7206306
-0.81022871 21.090908 3.7212591
-0.89767575 23.474022 3.7206376
-1.0103658 26.420845 3.7159219
-1.1545279 30.190649 3.7128668
-1.3411385 35.231499 3.7131274
-0.060688134 13.908484 3.7296648
-0.96506345 30.205244 3.7138426
-0.45411292 13.908932 3.7317369
-0.42403385 12.987645 3.7325139
-1.2015644 42.224514 3.7075481
-1.0094935 35.25848 3.7148032
-0.86994338 30.200191 3.7128668
-0.76154464 26.437115 3.7170353
-0.67674512 23.493288 3.7225149
-0.485111 14.938301 3.7276084
-0.61130637 21.09367 3.7205646
-0.51400965 17.525106 3.7250791
-0.4735159 16.144476 3.7276611
-0.43818143 14.939751 3.7276084
-0.4101893 13.902566 3.7296648
-0.38311899 12.98507 3.7314095
-1.0700237 42.2719 3.7113953
-0.89872754 35.261475 3.7148032
-0.55808282 19.141775 3.7206306
-0.5239768 16.135118 3.725862
-0.56880653 17.515585 3.7234166
-0.61821198 19.139927 3.7206306
-1.7749364 51.082981 3.5939481
-1.4685081 42.26392 3.711745
-1.2304558 35.235538 3.7131274
-1.0592636 30.182222 3.7114031
-0.92694575 26.412012 3.7142518
-0.82393008 23.476727 3.7206376
-0.74369204 21.085474 3.7198701
-0.67834419 19.13789 3.7206306
-0.62425333 17.525442 3.7259104
-0.57466871 16.133392 3.725862
-0.53162837 14.925067 3.7247045
-0.49725798 13.891992 3.7275927
-0.46469975 12.982407 3.7314095
-1.6146834 51.096279 3.5945094
-1.3352094 42.252392 3.7103462
-1.1198703 35.243202 3.7135463
-0.8442108 26.422712 3.7153652
-0.74991268 23.4713 3.7193861
-0.67781985 21.09952 3.7219536
-0.77506828 30.202772 3.7128668
-0.67818648 26.427494 3.7153652
-0.54534495 21.1073 3.7226484
-0.51227629 26.439157 3.7164786
-0.4549188 23.478872 3.7193861
-0.41263491 21.106371 3.7219536
-0.37773296 19.15011 3.7213936
-0.34874278 17.525261 3.7242479
-0.32141802 16.152117 3.7285607
-0.29736158 14.943217 3.7276084
-0.27906817 13.901952 3.7286289
-0.2606464 12.984261 3.7303054
-0.58528167 30.207048 3.7128668
-0.56621963 35.260422 3.7139652
-0.49050093 30.216677 3.7138426
-0.42926952 26.444595 3.7170353
-0.38146952 23.499937 3.7225149
-0.34631929 21.107561 3.7219536
-0.31762889 19.155127 3.7221565
-0.29361334 17.522358 3.7234166
-0.27060321 16.149151 3.7276611
-0.25034535 14.940197 3.7266405
-0.23552603 13.910486 3.730701
-0.21985638 12.985016 3.7303054
-0.67149925 42.276119 3.7110455
-0.67715341 35.266426 3.7148032
-0.80470121 42.29372 3.7127943
-0.9712019 51.044716 3.5897398
-0.49784601 19.139507 3.7198677
-0.45874897 17.518814 3.7234166
-0.42279735 16.145884 3.7276611
-0.39114597 14.937174 3.7266405
-0.36661559 13.907648 3.730701
-0.34252843 12.993896 3.7336183
-0.93658721 42.247166 3.7089472
-0.78775823 35.256168 3.7139652
-0.68017113 30.205059 3.7128668
-0.59524047 26.433456 3.7159219
-0.52902877 23.493126 3.721889
-0.47902578 21.10891 3.7226484
-0.43788922 19.148829 3.7213936
-0.40370476 17.520168 3.7234166
-0.37197709 16.143234 3.7267616
-0.34421331 14.938329 3.7266405
-0.32309705 13.916456 3.7327728
-0.30134463 12.979534 3.7292011
-0.60273731 23.487398 3.7212634
-0.015878819 12.994555 3.7325139
0.43991479 16.153225 3.7294602
0.40720826 14.952275 3.7305124
0.37642741 13.91125 3.7317369
0.35138997 12.985968 3.7314095
1.6504502 52.811768 3.7151494
1.325073 42.400215 3.7232864
1.0994734 35.379162 3.7277906
0.93613571 30.293537 3.7245762
0.47773078 17.54179 3.7284043
0.81862563 26.490889 3.724829
0.64957297 21.139818 3.728899
0.58540928 19.160599 3.7244451
0.5327186 17.536291 3.7275732
0.49054098 16.147865 3.7285607
0.45406225 14.947042 3.7295444
0.42036223 13.917724 3.733809
0.39253297 12.996328 3.7347226
1.4582705 42.395844 3.7232864
0.72655797 23.511562 3.7256434
0.52510411 19.158421 3.7236824
0.58293992 21.133879 3.72751
0.65291005 23.521627 3.7268949
0.26979029 12.987919 3.7314095
1.3187928 52.829075 3.7157104
1.0588391 42.415672 3.7239859
0.87686342 35.373444 3.7265337
0.74538779 30.282946 3.7226245
0.65187103 26.483629 3.7231588
0.57910877 23.527512 3.7275207
0.51663935 21.139545 3.7282045
0.46491364 19.159975 3.7236824
0.42252511 17.539291 3.7275732
0.3892597 16.158422 3.7303598
0.36023238 14.953481 3.7305124
0.33290687 13.92009 3.733809
0.31086743 12.998538 3.7347226
1.4846414 52.820683 3.7154298
1.1918625 42.404171 3.7232864
0.98765469 35.358585 3.7252767
0.84052062 30.280455 3.7226245
0.73506844 26.481451 3.7231588
1.2102064 35.363605 3.7265337
1.0308956 30.278543 3.7231126
0.90157539 26.480267 3.7237155
0.80055249 23.513113 3.7262692
0.76596498 19.15423 3.7244451
0.69812387 17.534401 3.7284043
0.64317214 16.154209 3.7312593
0.5952214 14.949856 3.7314804
0.55151308 13.913143 3.733809
0.51515353 12.995893 3.7358267
2.319896 52.922394 3.7246883
1.8579458 42.384201 3.7236362
1.544136 35.366531 3.7282095
1.3162142 30.267483 3.7231126
1.1514466 26.47851 3.724829
1.0224628 23.512417 3.7275207
0.91533595 21.133923 3.7295935
0.82664359 19.1635 3.7267339
0.75303829 17.528212 3.7275732
0.69375157 16.148216 3.7303598
0.64201814 14.944035 3.7305124
0.59521967 13.911343 3.733809
0.55548567 12.982688 3.7325139
-0.017000472 13.912469 3.730701
0.84830493 21.120949 3.7268155
0.28909376 13.917204 3.7327728
0.94843221 23.511564 3.7268949
1.2207997 30.263535 3.7221367
0.71584892 21.133738 3.7282045
0.64586556 19.166517 3.725971
0.5879389 17.538443 3.7284043
0.54126853 16.146246 3.7285607
0.50153762 14.961059 3.7334163
0.46421269 13.920196 3.7348449
0.43361646 13.002716 3.7369311
1.321744 35.371559 3.7277906
1.1257182 30.267221 3.7221367
0.98476112 26.477304 3.7237155
0.87441713 23.510481 3.7262692
0.78238463 21.135321 3.728899
0.70593113 19.160467 3.725208
0.64317787 17.540417 3.7292356
0.59199065 16.144464 3.7285607
0.54825217 14.951652 3.7314804
0.50780106 13.914807 3.733809
0.47404286 12.989763 3.7336183
2.1471353 52.769943 3.7134659
1.7246207 42.385845 3.7232864
1.4330213 35.371204 3.7282095
1.0682564 26.481997 3.724829
0.3133342 14.958419 3.7314804
1.5919019 42.403 3.7243354
0.36766759 17.552267 3.730067
0.084629469 16.162889 3.7303598
0.078359246 14.965376 3.7324483
0.070417084 13.912301 3.730701
0.065790586 12.998243 3.7336183
0.48834729 52.791401 3.7120631
0.39225084 42.403164 3.7218874
0.32109731 35.378876 3.7261147
0.26963201 30.290916 3.7226245
0.091882236 17.548054 3.7284043
0.23601536 26.514366 3.7264991
0.18456444 21.148991 3.728899
0.16390452 19.164913 3.7236824
0.14697774 17.543764 3.7275732
0.13534087 16.154749 3.7285607
0.12534139 14.961175 3.7314804
0.11425021 13.927465 3.7348449
0.10665691 13.001818 3.7347226
0.65488589 52.845463 3.715991
0.52546215 42.401726 3.7218874
0.2094481 23.529755 3.7268949
0.10373794 19.173187 3.725208
0.11810013 21.145527 3.7282045
0.13548078 23.522396 3.7256434
0.33841303 16.15567 3.7294602
0.15657067 52.769485 3.7103798
0.12585339 42.416748 3.7229366
0.098744854 35.360306 3.72402
0.079294093 30.288046 3.7221367
0.069386013 26.503445 3.724829
0.061613467 23.534557 3.7275207
0.05167865 21.149733 3.728899
0.043494273 19.169491 3.7244451
0.036744833 17.544342 3.7275732
0.033843752 16.159178 3.7294602
0.031335685 14.961667 3.7314804
0.026739698 13.927908 3.7348449
0.024962522 13.002231 3.7347226
0.32183799 52.68494 3.704488
0.25906 42.408173 3.7222371
0.20983185 35.359821 3.72402
0.15262574 26.499134 3.7242723
0.43214434 35.369736 3.7252767
0.36469662 30.281981 3.7216489
0.17453772 30.303528 3.7240882
0.28336784 23.52898 3.7268949
0.65466326 35.382233 3.7269526
0.55510098 30.287031 3.7226245
0.48553023 26.491163 3.7237155
0.43134302 23.534637 3.7281466
0.38387784 21.146311 3.728899
0.34466076 19.17037 3.725208
0.31231484 17.541601 3.7275732
0.28772628 16.160549 3.7303598
0.26620129 14.951569 3.7295444
0.22925739 13.004079 3.7358267
1.1524709 52.816998 3.7145882
0.92505974 42.394886 3.7218874
0.76598865 35.387955 3.7277906
0.65024763 30.285137 3.7226245
0.56858212 26.481586 3.7226021
0.50485301 23.513416 3.7250178
0.45030889 21.145 3.728899
0.31907287 26.493689 3.7237155
0.4049674 19.173119 3.725971
0.79149592 42.377666 3.7201388
0.98616356 52.800411 3.7131853
0.24537027 13.918043 3.7327728
0.20209228 17.543217 3.7275732
0.18613666 16.158142 3.7294602
0.17229789 14.956826 3.7305124
0.15787253 13.915447 3.7317369
0.14750274 13.001417 3.7347226
0.81947583 52.751385 3.7095382
0.65873015 42.403847 3.7222371
0.46006942 30.296566 3.7236004
0.54380918 35.403999 3.7290473
0.35728478 23.527975 3.7268949
0.31738383 21.143475 3.7282045
0.28443369 19.171358 3.725208
0.2572622 17.546408 3.7284043
0.23695509 16.161373 3.7303598
0.21922831 14.952331 3.7295444
0.25100493 21.148306 3.728899
0.20164429 13.918746 3.7327728
0.1884028 13.004735 3.7358267
0.40230355 26.492558 3.7237155
0.22406603 19.160378 3.7229195
-2.7532821 26.328274 3.7203755
-3.3837309 32.411629 3.432014
-2.4424474 23.355915 3.7193861
-1.3999063 12.907338 3.7292011
-1.4988748 13.819843 3.7275927
-2.1964409 20.968102 3.717092
-1.8310276 17.421032 3.7217538
-1.6862488 16.043556 3.7231636
-1.5614922 14.856579 3.7256725
-1.4550493 13.820642 3.7265568
-1.3593522 12.911673 3.7292011
-3.341573 33.011803 3.494437
-1.6077371 14.847742 3.7247045
-1.9971609 19.033636 3.7183421
-1.7374789 16.045931 3.7249625
-2.0573654 19.031174 3.719105
-2.9134011 26.263214 3.713695
-2.5904455 23.351891 3.7212634
-2.3303103 20.973465 3.7205646
-2.1167054 19.020712 3.7183421
-1.9395767 17.401407 3.7200913
-1.7865818 16.028772 3.7222641
-1.8844813 17.403524 3.71926
-1.6543719 14.842618 3.7247045
-1.4408729 12.906697 3.7303054
-3.441282 31.989498 3.3884435
-2.8856256 26.780273 3.7855084
-2.5153823 23.3442 3.7187605
-2.2622991 20.961098 3.717092
-1.542281 13.815066 3.7275927
-2.6657531 26.289505 3.713695
-3.1451068 34.293629 3.6268244
-2.1313472 20.982738 3.7184811
-2.7417958 28.844015 3.5606441
-2.5005171 26.305735 3.713695
-2.2218349 23.373966 3.7187605
-1.8187985 19.063341 3.7206306
-1.6660079 17.429726 3.7200913
-1.5353339 16.062618 3.7240632
-1.4210299 14.866773 3.7247045
-1.325093 13.837587 3.7275927
-1.2383319 12.931564 3.7314095
-3.2340338 34.085564 3.6058769
-2.6998503 29.382252 3.6260219
-2.4178679 26.313459 3.713695
-2.148397 23.380831 3.7187605
-1.9334997 21.001894 3.7184811
-1.7585434 19.065048 3.7198677
-1.611606 17.438768 3.7209227
-1.4855846 16.075123 3.725862
-1.3746777 14.875028 3.7256725
-1.2816172 13.841682 3.7275927
-1.1973481 12.931563 3.7303054
-2.3678582 23.351683 3.7175088
-1.9377474 19.043724 3.719105
-1.7758869 17.422806 3.7209227
-1.6354384 16.044899 3.7222641
-1.514807 14.861412 3.7256725
-1.4124043 13.832833 3.7286289
-1.3187786 12.91588 3.7292011
-3.2890937 33.544731 3.5497379
-2.583154 26.297749 3.713695
-2.2956481 23.370802 3.7193861
-2.0654216 20.98933 3.7184811
-1.8767581 19.037994 3.7168162
-1.7211462 17.428299 3.7209227
-1.5865592 16.065472 3.725862
-1.4681139 14.866097 3.7256725
-1.3689429 13.837201 3.7286289
-1.2789551 12.92761 3.7314095
-2.7823405 28.325565 3.4977059
-1.5856787 13.810153 3.7275927
-2.0899003 16.003843 3.7249625
-1.934345 14.812647 3.7256725
-1.8024037 13.783543 3.7275927
-1.6828949 12.869622 3.7280967
-3.6349633 28.653074 3.5494225
-2.2662132 17.353996 3.7184286
-3.0583646 24.10796 3.415308
-2.657474 20.918644 3.7177866
-2.4161997 18.992908 3.7198677
-2.211678 17.361031 3.7184286
-2.0386229 16.002598 3.7231636
-1.886815 14.81095 3.7237365
-1.7600664 13.796803 3.7296648
-1.6429384 12.87866 3.7292011
-2.9832737 23.516047 3.7544274
-2.4743381 18.973543 3.7175791
-3.0841484 23.714197 3.7875915
-3.1121862 23.355856 3.7319009
-2.7888587 20.901533 3.7177866
-2.5344493 18.969568 3.7183421
-2.7236934 20.914097 3.7184811
-2.3212368 17.350672 3.71926
-1.9798385 14.798803 3.7237365
-1.8467203 13.785471 3.7296648
-1.7248466 12.875703 3.7314095
-3.6650634 28.180887 3.4923391
-2.1401644 15.9972 3.7249625
-3.5844045 28.9835 3.5889418
-3.0331781 24.526283 3.4732041
-3.5280259 30.077972 3.7216489
-2.9745347 25.359217 3.5884395
-2.7352791 23.319458 3.7187605
-2.4625051 20.962322 3.7212591
-2.2366343 19.010939 3.719105
-2.0484178 17.384991 3.71926
-1.8886273 16.028843 3.7249625
-1.7480531 14.835785 3.7256725
-1.629054 13.805104 3.7275927
-1.5219404 12.89739 3.7303054
-3.4573784 30.29797 3.7475071
-2.9465024 25.821022 3.6524589
-2.6638017 23.343636 3.7212634
-2.3948529 20.954298 3.7184811
-2.1755626 19.006166 3.7168162
-1.9937947 17.39134 3.71926
-1.8382649 16.034697 3.7249625
-1.7018813 14.845057 3.7266405
-2.8807771 23.293968 3.7175088
-2.5931995 20.938616 3.7198701
-2.355557 18.992613 3.7183421
-2.1576116 17.371777 3.71926
-1.9888228 16.012793 3.7240632
-1.840757 14.820657 3.7247045
-1.7167164 13.802264 3.7296648
-1.6024733 12.883758 3.7292011
-3.5408278 29.388781 3.6377313
-3.0039713 24.932886 3.5294299
-2.8075871 23.302902 3.7175088
-2.52741 20.946657 3.7198701
-2.2954111 18.996021 3.7175791
-2.1034992 17.382353 3.7200913
-1.9385104 16.018961 3.7240632
-1.7946566 14.830219 3.7256725
-1.6724198 13.799917 3.7275927
-1.5619923 12.888728 3.7292011
-1.4818555 12.905927 3.7314095
-1.9998388 20.999638 3.7191756
-2.5308521 42.225601 3.7127943
-2.1224585 35.30864 3.7252767
-1.8171697 30.142111 3.7109151
-1.5899103 26.372471 3.7131383
-1.4124514 23.428888 3.7175088
-1.2726222 21.048332 3.7177866
-1.1588277 19.11088 3.7198677
-1.0637583 17.492504 3.7234166
-0.97991955 16.113855 3.725862
-0.90699875 14.914742 3.7266405
-0.79080099 12.966629 3.7314095
-2.4476652 43.104584 3.7893863
-2.00791 35.251587 3.7185736
-1.7224724 30.147669 3.7109151
-1.5079598 26.393152 3.7153652
-1.3392957 23.441099 3.7187605
-1.2073963 21.067957 3.7205646
-0.84691244 13.886678 3.730701
-1.0990125 19.118345 3.7206306
-0.89077914 13.887805 3.7317369
-2.3097329 34.774635 3.6703947
-2.0067878 30.134058 3.7114031
