# .PCD v0.7 - Point Cloud Data file format
VERSION 0.7
FIELDS x y z
SIZE 4 4 4
TYPE F F F
COUNT 1 1 1
WIDTH 1474
HEIGHT 1
VIEWPOINT 0 0 0 1 0 0 0
POINTS 1474
DATA ascii
-5.6238575 -0.6059823 0.7949568
-5.6641994 -0.61032927 0.90231407
-5.6867557 -0.61376375 1.0084487
-5.7671571 -0.64383256 1.5560991
-5.6639915 -0.57432908 0.90168834
-5.6787419 -0.5768261 1.0063652
-5.695538 -0.57953638 1.1122985
-5.6596227 -0.53798181 0.90043682
-5.6783333 -0.54076034 1.0056707
-5.6912498 -0.54299265 1.1107727
-5.7138343 -0.54615372 1.2195249
-5.7227921 -0.54701 1.3268099
-5.7411704 -0.54876661 1.4383864
-5.7611747 -0.55169338 1.551955
-5.7826562 -0.55375046 1.6685883
-5.3657384 -0.48926592 0.0042317249
-5.4126549 -0.49354392 0.098381147
-5.4458795 -0.4975318 0.19402429
-5.4853563 -0.50210375 0.29156929
-5.6191983 -0.53413928 0.79328668
-5.4993753 -0.50338697 0.38829231
-5.569694 -0.51080376 0.5890395
-5.5902185 -0.51366997 0.68988091
-5.6169043 -0.51612204 0.79273003
-5.6573501 -0.51983851 0.89981109
-5.7524295 -0.78798407 1.448066
-5.6760812 -0.52255863 1.0049762
-5.6890168 -0.52475089 1.1100098
-5.7155218 -0.52820164 1.2195249
-5.7322445 -0.52974707 1.328609
-5.7351365 -0.53001434 1.4364505
-5.7551851 -0.53288013 1.549883
-5.7767105 -0.53487319 1.6663797
-5.5354886 -0.50669259 0.4878813
-5.5964818 -0.53197992 0.6908567
-5.5759816 -0.52904934 0.58987737
-5.5457706 -0.52520633 0.48893052
-5.7180748 -0.58283788 1.2211875
-5.7231202 -0.58335209 1.3277094
-5.7453313 -0.58561611 1.4403224
-5.7652812 -0.58866626 1.5540271
-5.7790623 -0.59007335 1.6685883
-5.3625584 -0.52296793 0.0042317249
-5.4054666 -0.52715242 0.098308749
-5.4466243 -0.53212583 0.19416612
-5.4820933 -0.53655702 0.29156929
-5.5000753 -0.53831697 0.38857287
-5.5440936 -0.54262525 0.48893052
-5.5742922 -0.54656315 0.58987737
-5.5947828 -0.54955804 0.6908567
-5.6214347 -0.552176 0.79384339
-5.6618361 -0.55614454 0.90106261
-5.6766062 -0.55859554 1.0056707
-5.6934233 -0.56125367 1.1115355
-5.7198777 -0.56486952 1.2211875
-5.7288032 -0.56575096 1.328609
-5.739418 -0.56679922 1.4383864
-5.7671022 -0.57054955 1.5540271
-5.7808876 -0.57191336 1.6685883
-5.3721395 -0.50687087 0.0042380081
-5.4110775 -0.51054478 0.098381147
-5.4403095 -0.51426083 0.19388247
-5.479775 -0.5189563 0.29135787
-5.501739 -0.52103639 0.38857287
-5.375443 -0.59250504 0.004247433
-5.7902884 -0.66483784 1.6741098
-5.5725474 -0.56407416 0.58987737
-5.7529421 -0.65953243 1.4441942
-5.73035 -0.74830961 1.2278379
-5.7391233 -0.74945533 1.3358052
-5.769321 -0.75442284 1.5602431
-5.7905679 -0.75720119 1.6774226
-5.377378 -0.67836767 0.004256858
-5.4201465 -0.68376297 0.098887891
-5.449234 -0.6883986 0.19487527
-5.4924726 -0.69483477 0.29304937
-5.5064096 -0.69659787 0.3902562
-5.5621152 -0.70364505 0.49207813
-5.5802913 -0.70693386 0.59239107
-5.6006417 -0.71050513 0.69378406
-5.6310844 -0.71436715 0.79774022
-5.6712861 -0.7194671 0.90544277
-5.6898084 -0.72282588 1.0112269
-5.7064419 -0.72595108 1.1176387
-5.7210288 -0.72882134 1.2253441
-5.733717 -0.7304377 1.3340062
-5.7557502 -0.73324466 1.447098
-5.7716622 -0.7362954 1.5602431
-5.789104 -0.73852044 1.6763184
-5.3794832 -0.66146922 0.004256858
-5.4222679 -0.66673011 0.098887891
-5.4553366 -0.67176545 0.1950171
-5.490664 -0.67708844 0.29283792
-5.5125308 -0.67978495 0.39053676
-5.552434 -0.68470567 0.49102893
-5.704133 -0.74387366 1.1176387
-5.5785365 -0.68891299 0.59197211
-5.6836033 -0.74018759 1.0105323
-5.6248846 -0.73154223 0.79718357
-5.7895045 -0.79409218 1.678527
-5.3809409 -0.71319276 0.0042631412
-5.4197078 -0.71833092 0.09896028
-5.4566889 -0.72420162 0.19530077
-5.4919581 -0.72985786 0.29326078
-5.5137901 -0.73275918 0.39109787
-5.5654845 -0.73962915 0.49277762
-5.5836258 -0.7430318 0.593229
-5.7651057 -0.66194636 1.5560991
-5.6000023 -0.74620569 0.69427192
-5.6343379 -0.75078088 0.79885364
-5.6784019 -0.75665247 0.90731996
-5.6851544 -0.75856203 1.0112269
-5.6978765 -0.76127166 1.1168758
-5.7318492 -0.76682884 1.2286693
-5.7367406 -0.76748329 1.3358052
-5.7548761 -0.76990956 1.448066
-5.774581 -0.77357161 1.5623151
-5.7919707 -0.77590114 1.678527
-5.3752208 -0.69525677 0.004256858
-5.4179716 -0.70078635 0.098887891
-5.4589376 -0.70705372 0.19530077
-5.4902635 -0.71208537 0.29304937
-5.5081511 -0.71440548 0.39053676
-5.5559258 -0.7206018 0.4917284
-5.5819883 -0.72497272 0.59281003
-5.606256 -0.72911948 0.69475985
-5.6611624 -0.73626035 0.90419126
-5.6028461 -0.69290775 0.69378406
-5.7534184 -0.75132209 1.447098
-5.6695971 -0.70116293 0.90481699
-5.5566268 -0.64980489 0.49102893
-5.5867062 -0.65431076 0.59239107
-5.5952601 -0.65630251 0.69232035
-5.6218309 -0.65941918 0.79551345
-5.6621194 -0.66414493 0.9029398
-5.6807184 -0.66733158 1.0084487
-5.6974316 -0.67030299 1.1145872
-5.7237573 -0.67441297 1.2245127
-5.7364759 -0.67591155 1.3331066
-5.7508416 -0.67760426 1.4441942
-5.7668343 -0.68050903 1.5571351
-5.7843533 -0.6825763 1.6730055
-5.5087671 -0.64420807 0.38997564
-5.3695803 -0.6089378 0.0042442912
-5.4495101 -0.61896557 0.19459161
-5.4848957 -0.6239543 0.29220361
-5.5067992 -0.62644601 0.38969508
-5.5546818 -0.6318931 0.4906792
-5.5887341 -0.63675481 0.59239107
-5.6293697 -0.69618797 0.79718357
-5.6238747 -0.64175284 0.79551345
-5.660253 -0.64590406 0.90231407
-5.6788735 -0.64903283 1.0077542
-5.7034101 -0.65284556 1.11535
-5.7258482 -0.65642631 1.2245127
-5.7346988 -0.65744096 1.3322071
-5.416389 -0.61424613 0.098670714
-5.4868755 -0.64164805 0.29241505
-5.6012387 -0.63916981 0.69280827
-5.41046 -0.63079756 0.098598324
-5.4475384 -0.63608414 0.19459161
-5.6842322 -0.70398003 1.0098377
-5.6970038 -0.70657134 1.11535
-5.7271729 -0.71132791 1.2261753
-5.7437191 -0.71338302 1.3358052
-5.7541738 -0.71468157 1.4461302
-5.7875805 -0.71985638 1.6752141
-5.3815346 -0.64456689 0.004256858
-5.4163933 -0.64874208 0.098743103
-5.4494824 -0.65366995 0.19473344
-5.4887991 -0.65935773 0.29262647
-5.5067158 -0.66151005 0.38997564
-5.5545578 -0.66725725 0.49102893
-5.7739468 -0.71816063 1.5602431
-5.6049957 -0.6753009 0.69378406
-5.6275969 -0.67802393 0.79662687
-5.6600056 -0.68192858 0.9029398
-5.6825047 -0.68564558 1.0091432
-5.703094 -0.68913966 1.1161129
-5.7293792 -0.69333035 1.2261753
-5.371614 -0.62626857 0.004247433
-5.588573 -0.67233282 0.59281003
-5.7859974 -0.70120645 1.6741098
-5.7723393 -0.69955128 1.5592071
-5.7525377 -0.69613284 1.4451622
-5.738193 -0.69439697 1.3340062
-5.7287831 -1.3986447 1.0397023
-5.7150617 -1.3942378 0.93172371
-5.6233168 -1.3708161 0.60956788
-5.6543851 -1.3794352 0.71525133
-5.7368178 -1.4016672 1.1473916
-5.590415 -1.3617619 0.50501835
-5.5593176 -1.354187 0.40232021
-5.5264425 -1.346179 0.30108389
-5.4882097 -1.3358512 0.20040667
-5.4560223 -1.3270081 0.1016388
-5.6722655 -1.3837973 0.82056463
-5.7618561 -1.4088504 1.2602589
-5.7040491 -1.3725805 0.9292208
-5.7945695 -1.4168493 1.4877523
-5.8055577 -1.42061 1.6027199
-5.8256164 -1.4255182 1.7226987
-5.4143806 -1.2988789 0.0043730969
-5.4562745 -1.308929 0.1015664
-5.4884915 -1.3176708 0.20026484
-5.4102736 -1.3158813 0.0043730969
-5.5267601 -1.3278784 0.30087245
-5.5480251 -1.3329875 0.40119797
-5.5946651 -1.3441935 0.50501835
-5.6237273 -1.3522142 0.60914898
-5.6509705 -1.3598081 0.71427554
-5.665031 -1.3631916 0.81889457
-5.7774501 -1.4126633 1.372686
-5.8285718 -1.4456655 1.7249073
-5.4878664 -1.3540455 0.2005485
-5.7938566 -1.4359816 1.4887203
-5.7293186 -1.379719 1.0390078
-5.649457 -1.4159009 0.71573925
-5.6711426 -1.4213361 0.82167804
-5.7138529 -1.4320403 0.93297523
-5.7237029 -1.4355707 1.0403968
-5.7469401 -1.4424649 1.151206
-5.7642746 -1.4478853 1.2627528
-5.7835803 -1.4527345 1.3762841
-5.7930813 -1.455121 1.4896883
-5.6049414 -1.4026651 0.50711679
-5.6261692 -1.4090209 0.61082476
-5.5545697 -1.3900595 0.40260077
-5.8115048 -1.4608269 1.606864
-5.8314586 -1.4658427 1.7271159
-5.4177637 -1.3357458 0.0043825214
-5.4557085 -1.3451011 0.10171119
-5.5260634 -1.3644933 0.30129534
-5.5550351 -1.371647 0.40232021
-5.5977139 -1.3821852 0.50606757
-5.6267056 -1.3903856 0.6104058
-5.6461692 -1.3962407 0.71476346
-5.6678901 -1.401612 0.82056463
-5.7106528 -1.412187 0.93172371
-5.7358322 -1.4194758 1.041786
-5.7438202 -1.4225165 1.1496803
-5.7687945 -1.4297702 1.2627528
-5.7767663 -1.431746 1.3735856
-5.8123155 -1.4416335 1.6058279
-5.7488275 -1.3854786 1.1489173
-5.7463269 -1.3277012 1.1458658
-5.7742815 -1.3926795 1.3708869
-5.7421274 -1.3457462 1.1458658
-5.7634501 -1.3518045 1.2577649
-5.7753286 -1.3545907 1.3690879
-5.7887726 -1.3577439 1.4829125
-5.807405 -1.3631834 1.5996118
-5.8200784 -1.3661582 1.7171773
-5.4146872 -1.245104 0.0043636719
-5.4527779 -1.253863 0.10127684
-5.4811883 -1.2614031 0.19955568
-5.5273514 -1.2730427 0.30023816
-5.548677 -1.2779542 0.40035629
-5.5915527 -1.2878293 0.50361943
-5.7263684 -1.3409985 1.0369242
-5.6207161 -1.2955791 0.60747319
-5.6621881 -1.306179 0.8166678
-5.7051826 -1.3160973 0.92734355
-5.7267146 -1.322117 1.0362297
-5.7600436 -1.3319296 1.2561023
-5.7681637 -1.3338071 1.3663893
-5.7892275 -1.3386779 1.4819446
-5.8078938 -1.3440621 1.5985758
-5.8205957 -1.3470017 1.7160729
-5.4029679 -1.2245489 0.0043511055
-5.5294995 -1.3837854 0.30171821
-5.4488897 -1.2349567 0.10113205
-5.4890227 -1.24506 0.19969752
-5.6441922 -1.3020277 0.7118361
-5.7048664 -1.3349131 0.92796934
-5.6657705 -1.3257649 0.81778115
-5.6478057 -1.3215611 0.71281189
-5.787673 -1.3959092 1.4848485
-5.8099918 -1.4023653 1.6027199
-5.8263288 -1.4063085 1.7215945
-5.4106498 -1.2800195 0.0043668137
-5.4486847 -1.2890174 0.10134923
-5.4887147 -1.2994992 0.20012301
-5.5231314 -1.3086655 0.30044958
-5.552186 -1.3155499 0.40119797
-5.5949836 -1.3256904 0.50466865
-5.6202068 -1.3327028 0.60831106
-5.6436262 -1.3392966 0.71281189
-5.665432 -1.3444713 0.81833786
-5.7044892 -1.35374 0.92859507
-5.722127 -1.3589835 1.0369242
-5.7416911 -1.3646884 1.1466286
-5.7629809 -1.3708113 1.2585963
-5.7710443 -1.3727294 1.3690879
-5.7920294 -1.3777211 1.4848485
-5.8068514 -1.3823174 1.6006478
-5.8269777 -1.3871084 1.7204901
-5.4068532 -1.2611988 0.0043605305
-5.4527068 -1.2718947 0.10134923
-5.4888773 -1.2813418 0.19998118
-5.5233254 -1.2904 0.30023816
-5.5524058 -1.2971939 0.40091741
-5.5913601 -1.3062947 0.50396913
-5.620492 -1.3141353 0.6078921
-5.7662535 -1.3907431 1.2602589
-5.4874635 -1.3722481 0.20069033
-5.6843591 -1.5582646 0.82835835
-5.4135413 -1.3527585 0.0043825214
-5.8058276 -1.5752338 1.5003358
-5.8239512 -1.5812424 1.6182601
-5.8324752 -1.5835567 1.7359502
-5.4186797 -1.4448377 0.0044045127
-5.4718943 -1.4590268 0.10250751
-5.4961314 -1.4665169 0.20182498
-5.5379558 -1.4787121 0.3034097
-5.5590363 -1.4843409 0.40456468
-5.6130157 -1.4987541 0.50991464
-5.6302452 -1.5044074 0.61375737
-5.6572032 -1.5126685 0.7196424
-5.6825576 -1.5194479 0.82668823
-5.7852631 -1.5696543 1.3834804
-5.7211876 -1.5297772 0.93798113
-5.7539172 -1.5406808 1.1573092
-5.7748351 -1.547362 1.2702346
-5.7826371 -1.5494525 1.3816813
-5.7995014 -1.5539713 1.4974319
-5.8214269 -1.5609353 1.616188
-5.8299952 -1.5632325 1.7337416
-5.4154558 -1.4257716 0.0043982295
-5.4687157 -1.4397938 0.10236272
-5.49298 -1.4472072 0.20154132
-5.5348487 -1.4592713 0.3029868
-5.5636721 -1.4668705 0.40456468
-5.6099906 -1.4790826 0.50921518
-5.7346964 -1.5344617 1.0466475
-5.7774973 -1.5675473 1.2718972
-5.7528381 -1.5597789 1.1580721
-5.7374516 -1.5545293 1.0480366
-5.4210696 -1.4820206 0.0044139372
-5.5274286 -1.2547858 0.30002671
-5.4664769 -1.4944341 0.1025799
-5.4945202 -1.5031312 0.20210864
-5.5439658 -1.517698 0.30425543
-5.5611458 -1.5224012 0.40540633
-5.6111746 -1.5360968 0.51061416
-5.6360278 -1.5439581 0.61543316
-5.6590738 -1.5513332 0.72110605
-5.7152734 -1.5667392 0.93860686
-5.7401366 -1.5746322 1.0494256
-5.7516961 -1.5788825 1.1588349
-5.7876363 -1.5898345 1.2752224
-5.7915783 -1.5909175 1.386179
-5.7971082 -1.5924364 1.4993678
-5.8189549 -1.59953 1.6182601
-5.838593 -1.604928 1.7392632
-5.4218378 -1.4639382 0.0044107959
-5.4634228 -1.4751666 0.10243511
-5.4992156 -1.4858606 0.20210864
-5.5332832 -1.4961019 0.3034097
-5.5620499 -1.5038798 0.40512577
-5.6121268 -1.5174197 0.5102644
-5.6293316 -1.5231258 0.61417633
-5.6524239 -1.5304326 0.7196424
-5.6815801 -1.5383269 0.82724494
-5.7239809 -1.5498072 0.93923259
-5.6310968 -1.4856983 0.61333841
-5.6504116 -1.4918491 0.71817869
-5.6719837 -1.4975445 0.82446146
-5.7183256 -1.50978 0.93672967
-5.6519837 -1.4543381 0.7172029
-5.6697726 -1.4589154 0.8227914
-5.7162209 -1.4708672 0.93485242
-5.733644 -1.4764173 1.0438695
-5.7529726 -1.482465 1.1542575
-5.7702184 -1.4879831 1.266078
-5.7856607 -1.4919652 1.3789828
-5.7913404 -1.4934298 1.4916241
-5.8171754 -1.5011748 1.611008
-5.8333011 -1.5053363 1.7304288
-5.4131422 -1.3707397 0.0043856632
-5.4549036 -1.3813149 0.10185598
-5.4908757 -1.3914436 0.20097399
-5.5328689 -1.4031128 0.30214107
-5.5579114 -1.4094634 0.40316188
-5.6043696 -1.421245 0.5074665
-5.6294265 -1.428645 0.61166263
-5.648829 -1.4346185 0.71622711
-5.6704888 -1.4401194 0.82223469
-5.7169843 -1.4519277 0.93422669
-5.7382536 -1.4583983 1.0438695
-5.7423797 -1.4605139 1.151206
-5.7748642 -1.4698492 1.266078
-5.7865419 -1.4728215 1.3780832
-5.7922421 -1.4742723 1.4906561
-5.8181181 -1.4819397 1.609972
-5.8268242 -1.4841572 1.7271159
-5.6326156 -1.4483062 0.61250055
-5.4592166 -1.364172 0.10185598
-5.5998764 -1.4388461 0.5074665
-5.5206957 -1.4185013 0.30171821
-5.7356791 -1.5154327 1.045953
-5.7511368 -1.5205907 1.1557834
-5.7758851 -1.5282125 1.2694032
-5.7837076 -1.5302824 1.3807819
-5.7968507 -1.5337597 1.495496
-5.8188324 -1.5406625 1.6141161
-5.8385935 -1.5458946 1.734846
-5.4121652 -1.4067372 0.0043919464
-5.4615998 -1.4195864 0.10214555
-5.4974995 -1.4299418 0.20154132
-5.5355406 -1.440868 0.30277538
-5.5566688 -1.4463675 0.403723
-5.6030412 -1.458438 0.50816596
-5.631887 -1.466996 0.61291945
-5.6550708 -1.4740888 0.71817869
-5.6766605 -1.4797165 0.82446146
-5.7192178 -1.4908098 0.93610388
-5.732789 -1.495416 1.044564
-5.7444878 -1.4995384 1.1534947
-5.7806578 -1.5100579 1.2694032
-5.7847161 -1.5111181 1.3798823
-5.801641 -1.5155392 1.495496
-5.8161688 -1.5204186 1.612044
-5.8322635 -1.5246259 1.7315331
-5.4204321 -1.3907226 0.0043950877
-5.4582849 -1.4004345 0.10200076
-5.4864774 -1.4086884 0.20097399
-5.5573201 -1.4279116 0.40344244
-5.5487733 -1.2596313 0.40007573
-5.6977463 -1.1643999 0.92108619
-5.6208801 -1.2770318 0.60705423
-5.6537929 -1.1184565 0.80998749
-5.6971993 -1.1270432 0.91983473
-5.711318 -1.1308722 1.0265064
-5.7274199 -1.1350992 1.1344224
-5.7491465 -1.140448 1.2452954
-5.7575135 -1.1421077 1.3546954
-5.7789302 -1.1463561 1.4693611
-5.7941928 -1.1504347 1.5840715
-5.8147826 -1.1545229 1.7028215
-5.3955698 -1.0458603 0.0043165479
-5.4378767 -1.0540609 0.10026334
-5.4704819 -1.0613717 0.19771188
-5.6316748 -1.1140809 0.70549345
-5.5209827 -1.0721695 0.29770094
-5.5818596 -1.0839918 0.49907285
-5.60355 -1.0892189 0.60118896
-5.6351471 -1.0963814 0.70549345
-5.6533909 -1.099931 0.80943078
-5.6890783 -1.1068743 0.91795748
-5.7109766 -1.1121694 1.0258118
-5.7193956 -1.114845 1.1321337
-5.7527013 -1.1223792 1.2452954
-5.7572484 -1.1232663 1.3537959
-5.7786937 -1.1274503 1.4683932
-5.7977786 -1.1322244 1.5840715
-5.8070621 -1.1340374 1.6995085
-5.5464315 -1.0771117 0.39727014
-5.604003 -1.1075906 0.60160792
-5.5784264 -1.101524 0.49907285
-5.5391054 -1.0937597 0.39698958
-5.7240219 -1.1718512 1.1351852
-5.7495332 -1.1781195 1.246958
-5.7616787 -1.1806082 1.357394
-5.7792172 -1.184202 1.471297
-5.7982039 -1.1891469 1.5871795
-5.8149462 -1.1925806 1.7050301
-5.4006581 -1.0820988 0.0043259729
-5.4429107 -1.0905647 0.10048052
-5.4793835 -1.0988673 0.19827922
-5.5141373 -1.1068381 0.29770094
-5.5356421 -1.1111548 0.39698958
-5.578845 -1.1198268 0.49942258
-5.6043954 -1.1259731 0.60202688
-5.6437163 -1.1348976 0.70744503
-5.6541348 -1.1369927 0.81054419
-5.6936307 -1.1449349 0.91983473
-5.7115993 -1.1495854 1.0272009
-5.7276754 -1.1538613 1.1351852
-5.7570419 -1.1608227 1.2477893
-5.761539 -1.1617295 1.3564944
-5.7753005 -1.1645043 1.4693611
-5.7943377 -1.1693952 1.5851076
-5.8148961 -1.1735443 1.7039257
-5.4040308 -1.065128 0.0043259729
-5.4463096 -1.0734611 0.10048052
-5.4671202 -1.078554 0.19771188
-5.5136681 -1.0887368 0.29748949
-5.4450898 -1.0377219 0.10033574
-5.7118182 -1.1683142 1.0278955
-5.4698629 -1.0434325 0.19757006
-5.5419488 -1.0581862 0.39670905
-5.4723797 -1.0083191 0.19742823
-5.5072732 -1.0157422 0.29643232
-5.5327926 -1.0204489 0.39558682
-5.5800719 -1.029169 0.49802366
-5.6018314 -1.034193 0.59993213
-5.6296139 -1.0403382 0.70354187
-5.6518207 -1.0444419 0.80776072
-5.6876025 -1.0510544 0.9160803
-5.7018366 -1.054714 1.0223392
-5.7219272 -1.0594631 1.1306078
-5.751482 -1.0659736 1.2428014
-5.7560816 -1.0668261 1.3510972
-5.439703 -1.0013165 0.10011856
-5.773798 -1.0701097 1.4645213
-5.8061514 -1.0771542 1.6961957
-5.6289477 -1.021939 0.70305401
-5.6433816 -1.0245596 0.80609065
-5.6869888 -1.0324765 0.91545457
-5.705122 -1.036797 1.0223392
-5.721364 -1.0407802 1.129845
-5.7471032 -1.0464988 1.2411388
-5.7517357 -1.0473423 1.3492982
-5.7656765 -1.0498807 1.4616175
-5.7963452 -1.0565103 1.5799274
-5.8095069 -1.0589094 1.6961957
-5.5916853 -1.2693728 0.50326967
-5.7967958 -1.0754185 1.5809635
-5.3973193 -0.99351478 0.0043102647
-5.8102942 -1.0968173 1.6984043
-5.7971854 -1.0943427 1.5819995
-5.5734949 -1.0642096 0.49802366
-5.6030369 -1.0708638 0.60077
-5.6268654 -1.0764359 0.7040298
-5.6529279 -1.0814217 0.80887407
-5.6886468 -1.0882549 0.91733176
-5.7067041 -1.0927417 1.0244228
-5.7228699 -1.0968726 1.1321337
-5.7523556 -1.1035649 1.244464
-5.7607484 -1.105175 1.3537959
-5.7745838 -1.1078293 1.4664572
-5.7937188 -1.1125486 1.5819995
-5.8143711 -1.1165143 1.7006129
-5.4020348 -1.0119381 0.0043165479
-5.4404612 -1.0191363 0.10019095
-5.4652557 -1.0247682 0.1972864
-5.5119066 -1.0345114 0.29685518
-5.5413246 -1.0400327 0.3964285
-5.5768113 -1.0466931 0.49802366
-5.6024632 -1.0525227 0.6003511
-5.626317 -1.0580206 0.70354187
-5.6562967 -1.0636582 0.80887407
-5.6842718 -1.0689189 0.9160803
-5.7023664 -1.0733519 1.0230337
-5.7224288 -1.0781624 1.1313708
-5.7519493 -1.0847639 1.2436328
-5.7603617 -1.0863503 1.3528963
-5.7742219 -1.0889642 1.4654893
-5.5086293 -1.051824 0.29685518
-5.6544151 -1.1555448 0.81110084
-5.4066873 -1.0304033 0.0043228311
-5.6443839 -1.2834077 0.71134818
-5.5917683 -1.2324985 0.50257021
-5.6210237 -1.2399755 0.60621631
-5.6407056 -1.2453523 0.70988452
-5.6587753 -1.2493417 0.81444103
-5.7019014 -1.2588631 0.92484063
-5.7158418 -1.2629871 1.0320625
-5.7317462 -1.2675506 1.1405255
-5.7608805 -1.275048 1.2536085
-5.769062 -1.2768588 1.3636907
-5.7902193 -1.2815416 1.4790407
-5.8052154 -1.2859235 1.5944318
-5.818018 -1.2887594 1.7116559
-5.5235019 -1.2174516 0.2993924
-5.3986316 -1.1701846 0.0043385392
-5.4887929 -1.1907306 0.19927202
-5.5233955 -1.1992465 0.29918098
-5.5409017 -1.2030476 0.39867294
-5.583931 -1.2123901 0.50152099
-5.6132293 -1.2197772 0.60495949
-5.6407108 -1.2267801 0.7093966
-5.6588016 -1.2307146 0.81388432
-5.6981077 -1.2392631 0.92358917
-5.7159319 -1.2441845 1.031368
-5.7241907 -1.2470285 1.1382369
-5.7610354 -1.2561084 1.2527771
-5.769237 -1.2578965 1.3627912
-5.4485607 -1.181007 0.10091487
-5.481122 -1.2071075 0.19913019
-5.4487295 -1.1989768 0.10098727
-5.4066486 -1.1897169 0.0043479642
-5.6362329 -1.1518289 0.70695716
-5.6662641 -1.2883828 0.8166678
-5.7015843 -1.2964139 0.92609209
-5.7154756 -1.3006215 1.0334516
-5.7351556 -1.3061526 1.1428142
-5.7565708 -1.3120867 1.2544397
-5.772326 -1.3156776 1.3663893
-5.7896209 -1.3196198 1.4809766
-5.8045549 -1.3240894 1.5965037
-5.8247995 -1.3287073 1.7160729
-5.4067883 -1.2075701 0.0043511055
-5.4488392 -1.2169619 0.10105966
-5.4812031 -1.2251946 0.19927202
-5.5196495 -1.2347997 0.2993924
-5.5527029 -1.2421942 0.40007573
-5.5878687 -1.250061 0.50257021
-5.6132183 -1.2567606 0.60579735
-5.6406398 -1.263934 0.71037239
-5.6625528 -1.2688442 0.81555438
-5.7017741 -1.2776327 0.92546636
-5.7233772 -1.2835225 1.0341462
-5.7392302 -1.2881298 1.1428142
-5.7606645 -1.2939966 1.2544397
-5.7650223 -1.2949755 1.3636907
-5.7823777 -1.298874 1.4780728
-5.8049164 -1.305001 1.5954677
-5.8214426 -1.3087163 1.7138643
-5.7828407 -1.2608627 1.4761368
-5.7979031 -1.2652068 1.5913236
-5.5526819 -1.2238833 0.39979517
-5.5792036 -1.1381431 0.49977234
-5.7655869 -1.2192031 1.3600926
-5.7830544 -1.2228968 1.4742008
-5.7943988 -1.2263523 1.5882156
-5.8073392 -1.229091 1.7050301
-5.4055037 -1.1184427 0.0043353979
-5.4516168 -1.1279837 0.10077009
-5.476285 -1.1340846 0.19842105
-5.5148964 -1.1430843 0.29812381
-5.5402727 -1.1483442 0.39783126
-5.5834036 -1.157284 0.50047177
-5.6050005 -1.1627806 0.60286474
-5.6546359 -1.1741071 0.81165755
-5.6901927 -1.1814899 0.92046046
-5.711977 -1.1870531 1.02859
-5.7356892 -1.1930252 1.1382369
-5.7534647 -1.19777 1.2486206
-5.765573 -1.2002908 1.3591931
-5.7830682 -1.203933 1.473233
-5.7982225 -1.2081437 1.5882156
-5.8186989 -1.2124102 1.7072387
-5.4050713 -1.1006554 0.004332256
-5.4355392 -1.1068597 0.10040813
-5.4759045 -1.1160748 0.19827922
-5.5184608 -1.1257516 0.29812381
-5.5438533 -1.1309316 0.39783126
-5.8182826 -1.269654 1.7105515
-5.6047287 -1.144369 0.60244578
-5.7573295 -1.2174571 1.2502832
-5.7280722 -1.2102257 1.1374739
-5.6364741 -1.170336 0.70744503
-5.4444218 -1.1622154 0.10077009
-5.4101048 -1.1548897 0.0043448224
-5.7120743 -1.2058045 1.0292845
-5.4807787 -1.1709765 0.19884653
-5.5154171 -1.1793836 0.29854667
-5.5446539 -1.1856354 0.39867294
-5.5877118 -1.1948428 0.50152099
-5.6053638 -1.1996404 0.60370266
-5.640655 -1.2082227 0.70890874
-5.7019725 -1.2213569 0.92358917
-5.715961 -1.2253966 1.0306735
-5.7319193 -1.2298642 1.1389997
-5.7573018 -1.2363614 1.2511145
-5.7617283 -1.237312 1.3600926
-5.6548939 -1.2112727 0.81277096
-5.7980714 -1.2461751 1.5902877
-5.6941843 -1.20099 0.92171192
-5.7867732 -1.2426903 1.4761368
-5.6405387 -1.1896753 0.70842081
-5.6052127 -1.1812028 0.6032837
-5.579741 -1.1748179 0.50047177
-5.5444469 -1.1673869 0.39839238
-5.6586714 -1.1934998 0.81277096
-5.4844313 -1.1537509 0.19884653
-5.4441319 -1.1442811 0.1006977
-5.4058776 -1.1362406 0.0043385392
-5.8147244 -1.2497543 1.7083429
-5.5190954 -1.1620491 0.29854667
-5.8644562 -2.0158606 1.7812263
-5.8458772 -2.0094743 1.6576288
-5.8288298 -2.0024769 1.5371182
-5.8129544 -1.997023 1.4185622
-5.8096027 -1.9958714 1.3051493
-5.7438908 -1.9699346 0.96175915
-5.7677989 -1.9792591 1.0751231
-5.7139311 -1.9596595 0.84895593
-5.6932034 -1.9525508 0.73964602
-5.6671948 -1.9425255 0.63093418
-5.4480305 -1.8451154 0.0045176102
-5.7860446 -1.9866492 1.1885878
-5.4963837 -1.8614916 0.10504124
-5.8314185 -1.9829042 1.5361502
-5.5570407 -1.884197 0.31059849
-5.5964618 -1.8975633 0.41550642
-5.6378512 -1.9115969 0.52250516
-5.6619682 -1.920876 0.62967736
-5.6842723 -1.9295491 0.73769444
-5.708807 -1.9378775 0.84728587
-5.7463107 -1.9506084 0.96113342
-5.7665291 -1.958594 1.073734
-5.7885399 -1.9671968 1.1878248
-5.8010273 -1.9725701 1.3018241
-5.8192005 -1.9787496 1.4185622
-5.6393566 -1.9318837 0.52320462
-5.5200047 -1.8705653 0.20678905
-5.5942473 -1.9164305 0.41578698
-5.7463155 -2.0112064 0.96426213
-5.5216637 -1.8904889 0.20707271
-5.8485031 -1.9898555 1.6565928
-5.7775564 -2.0232725 1.0792902
-5.791976 -2.0294573 1.1924022
-5.811717 -2.037513 1.3084745
-5.8186827 -2.0399551 1.4230598
-5.8307834 -2.0441973 1.54099
-5.8586555 -2.0551176 1.664881
-5.8698134 -2.0590315 1.7867478
-5.4438906 -1.8819242 0.0045238934
-5.488359 -1.8972967 0.10511363
-5.5232539 -1.9104388 0.20735638
-5.5601912 -1.9243016 0.31144422
-5.5881991 -1.9339948 0.41578698
-5.6407909 -1.952196 0.52390409
-5.6685824 -1.9629221 0.6317721
-5.690793 -1.9717255 0.74013388
-5.7227178 -1.9827867 0.8511827
-5.7526059 -1.9931422 0.96426213
-5.7689967 -1.9999492 1.0765121
-5.7834845 -2.0061023 1.1893507
-5.8070002 -2.0153947 1.3059807
-5.8213811 -2.0203855 1.4221603
-5.829844 -2.0233228 1.5390542
-5.8504848 -2.0316305 1.6607369
-5.8689899 -2.0380566 1.7845392
-5.4422064 -1.8622233 0.0045176102
-5.4942918 -1.880046 0.10511363
-5.558651 -1.9042363 0.31102136
-5.8634806 -1.9949512 1.7790177
-5.7063413 -1.857407 0.84338903
-5.4870362 -1.839132 0.10475167
-5.8649573 -1.9544239 1.7757049
-5.4385734 -1.7849567 0.0044956189
-5.483284 -1.7996308 0.1044621
-5.5183988 -1.8122225 0.2060799
-5.5593729 -1.8267531 0.30975273
-5.5837708 -1.8347702 0.41326195
-5.6253319 -1.8484267 0.51970726
-5.6571465 -1.8599745 0.62716365
-5.6795769 -1.8684478 0.73476708
-5.7080035 -1.8777995 0.84450239
-5.7494273 -1.8914269 0.95863044
-5.7585402 -1.8955384 1.0688723
-5.7844458 -1.9051849 1.1832476
-5.8044958 -1.9129115 1.2984989
-5.8153811 -1.9164988 1.413165
-5.8314166 -1.9217836 1.5313104
-5.8413138 -1.9261755 1.6493406
-5.8528132 -1.9299674 1.7701833
-5.4365454 -1.7653924 0.0044893357
-5.485106 -1.7811614 0.1043897
-5.5164604 -1.7924074 0.20579623
-5.5574865 -1.8068099 0.30932987
-5.5819178 -1.8147528 0.41270086
-5.6197429 -1.8270503 0.51865804
-5.6516128 -1.8385023 0.62590683
-5.6891937 -1.8518255 0.73525494
-5.7164602 -2.000757 0.8511827
-5.8388982 -1.94574 1.6503767
-5.4348364 -1.8216358 0.004501902
-5.8253498 -1.9400957 1.5313104
-5.7984567 -1.9311391 1.2984989
-5.5258532 -1.8532156 0.20678905
-5.5553589 -1.8641894 0.3101756
-5.5948296 -1.8774344 0.4149453
-5.6287174 -1.8888061 0.52110618
-5.6566615 -1.8992816 0.62842053
-5.6827788 -1.9091543 0.73671865
-5.7148666 -1.9199344 0.84728587
-5.7449198 -1.9300309 0.95988196
-5.7651858 -1.9379591 1.0723449
-5.7872477 -1.9464995 1.1862991
-5.8071957 -1.9543369 1.3018241
-5.8216939 -1.9592161 1.4176626
-5.8265839 -1.9608617 1.5332464
-5.8437414 -1.9677715 1.6534847
-5.855145 -1.9716114 1.7746005
-5.4405322 -1.804554 0.004501902
-5.4889903 -1.8206269 0.10467928
-5.5202661 -1.8320701 0.20636356
-5.5536056 -1.8442109 0.30975273
-5.5893393 -1.8560771 0.41410363
-5.6308413 -1.8698589 0.52075648
-5.6625996 -1.8815024 0.62842053
-5.6925159 -1.8925457 0.73720652
-5.7171111 -1.9007226 0.84672916
-5.7434564 -1.9094815 0.95863044
-5.7637691 -1.917352 1.0709559
-5.7784314 -1.9233495 1.1832476
-5.8167262 -1.9372236 1.4149641
-5.6920648 -1.9922186 0.74110967
-5.7328 -1.8660194 0.95487607
-5.6421528 -1.9725391 0.52460355
-5.5350461 -2.0321159 0.20920017
-5.5679264 -2.04529 0.31398144
-5.6031895 -2.0582433 0.41971481
-5.6441355 -2.0732844 0.52775121
-5.6791162 -2.0872588 0.63721842
-5.7047839 -2.0978227 0.7469644
-5.7252231 -2.1053388 0.8573063
-5.758512 -2.1175802 0.97177094
-5.782033 -2.1273751 1.0862354
-5.7962327 -2.1337481 1.2000312
-5.8230543 -2.1447761 1.3184502
-5.8298106 -2.1472647 1.4338542
-5.4966769 -2.0169404 0.10598234
-5.8343744 -2.1489456 1.5506697
-5.8764281 -2.1655998 1.798895
-5.4550133 -1.9822282 0.0045584505
-5.4917102 -1.9955629 0.10576516
-5.5263762 -2.0092518 0.20863284
-5.5705714 -2.0264206 0.31377003
-5.6058788 -2.0392644 0.41943425
-5.6468778 -2.0541787 0.52740145
-5.6669555 -2.0626025 0.63512367
-5.7001557 -2.0758133 0.74550068
-5.7355313 -2.0886958 0.85786301
-5.7540002 -2.0954216 0.96989375
-5.7775846 -2.1051524 1.0841519
-5.8582792 -2.1589115 1.6742051
-5.4562688 -2.0021131 0.0045647337
-5.8695965 -2.1840494 1.798895
-5.8550897 -2.1786513 1.6752411
-5.4585681 -2.04196 0.0045773
-5.4988799 -2.05704 0.10627191
-5.5334015 -2.0710549 0.20962566
-5.5699291 -2.0858347 0.31482717
-5.6050944 -2.0990036 0.42083704
-5.6421933 -2.1128964 0.52880037
-5.6770654 -2.1270852 0.63847524
-5.698926 -2.1364102 0.74794018
-5.7304268 -2.1482193 0.86008978
-5.7635908 -2.1606519 0.97489965
-5.786994 -2.1705773 1.0897081
-5.8010936 -2.1770203 1.2038456
-5.4499521 -2.0192435 0.0045647337
-5.4940639 -2.0355871 0.10605473
-5.5361323 -2.0522726 0.20948383
-5.5727091 -2.0669382 0.31461576
-5.6079192 -2.0799978 0.42055649
-5.6488032 -2.0951617 0.52880037
-5.6762605 -2.106473 0.63763738
-5.6981654 -2.1157331 0.7469644
-5.7297206 -2.1274495 0.85897642
-5.7629423 -2.1397848 0.97364819
-5.7827067 -2.1482718 1.0876244
-5.7968621 -2.1546819 1.2015569
-5.8199558 -2.1644218 1.3192816
-5.8303428 -2.1682847 1.4356533
-5.8457832 -2.174027 1.5555094
-5.7955298 -2.1128368 1.1985054
-5.8150611 -2.1211071 1.315125
-5.829205 -2.1262662 1.4320551
-5.8374515 -2.1292741 1.5497017
-5.806169 -2.0766218 1.3101372
-5.8204308 -2.0817225 1.4266579
-5.8397512 -2.0886328 1.5467978
-5.8456283 -2.0918853 1.664881
-5.8676205 -2.0997555 1.7900606
-5.4470468 -1.9214145 0.0045364597
-5.4914155 -1.9370654 0.1054032
-5.5262194 -1.9504267 0.2079237
-5.5630565 -1.96452 0.31228995
-5.5985117 -1.9770405 0.41747034
-5.6321707 -1.9889268 0.52425385
-5.6711397 -2.0038013 0.63344789
-5.6857781 -2.0100899 0.74110967
-5.7250848 -2.0239861 0.85340947
-5.7511439 -2.0331986 0.96613932
-5.7748857 -2.042726 1.0799847
-5.7966771 -2.0515723 1.1946909
-5.812664 -2.0583723 1.3101372
-5.8269415 -2.0634282 1.4266579
-5.8353081 -2.066391 1.5438939
-5.8448873 -2.070931 1.6628089
-5.8705635 -2.0800283 1.7889564
-5.4492798 -1.9029752 0.0045333179
-5.4936976 -1.9184865 0.10533081
-5.5247717 -1.9304199 0.20764004
-5.557889 -1.9430798 0.31165567
-5.5896287 -1.9541763 0.4163481
-5.793901 -2.0710936 1.1954539
-5.6698966 -1.9833492 0.63260996
-5.7795687 -2.0648327 1.0820683
-5.7261591 -2.0446248 0.85452288
-5.8505158 -2.1351964 1.670061
-5.8687572 -2.1418538 1.7944778
-5.4499221 -1.9610192 0.004549026
-5.4904251 -1.9755932 0.10562038
-5.5289001 -1.9905274 0.20849101
-5.5656352 -2.0048501 0.31313571
-5.5972409 -2.0162351 0.41831201
-5.6458049 -2.0337286 0.52670199
-5.6734071 -2.04479 0.63512367
-5.6991792 -2.0552027 0.7445249
-5.7271595 -2.0652928 0.85563624
-5.7568378 -2.0759952 0.96926802
-5.7841692 -2.0869923 1.0841519
-5.7947516 -2.0919535 1.1969796
-5.8143358 -2.1001706 1.3134624
-5.8285246 -2.1052957 1.4302561
-5.8368106 -2.1082888 1.5477657
-5.8499274 -2.1141808 1.667989
-5.8609943 -2.1181805 1.7900606
-5.4522882 -1.9425439 0.0045458842
-5.4928379 -1.956991 0.10554799
-5.527596 -1.9704617 0.20820735
-5.5643821 -1.9846698 0.31271285
-5.5997896 -1.9972988 0.41803145
-5.6371541 -2.0106258 0.52530301
-5.6685638 -2.022944 0.63386685
-5.6981301 -2.0346165 0.74354911
-5.7521696 -2.0539124 0.96739078
-5.7682118 -1.8786591 1.0695668
-5.8250012 -1.7597804 1.6317284
-5.8067565 -1.893455 1.2976676
-5.8285322 -1.7209578 1.6296563
-5.8441777 -1.7255772 1.7503061
-5.4278536 -1.5759107 0.0044390704
-5.469214 -1.5879191 0.10308664
-5.5009418 -1.5981718 0.20324329
-5.5462918 -1.6123972 0.30573547
-5.5710301 -1.619589 0.40793136
-5.6169643 -1.6329428 0.513412
-5.6416383 -1.6411839 0.61878473
-5.6721277 -1.651127 0.72598499
-5.6858039 -1.6551082 0.83225518
-5.7240987 -1.6662555 0.94423848
-5.8070107 -1.7135012 1.5100154
-5.7411704 -1.6723118 1.0542873
-5.7882433 -1.6882154 1.2810415
-5.7920671 -1.6893306 1.3924757
-5.808639 -1.694164 1.5090474
-5.8264918 -1.7004746 1.6275843
-5.8421884 -1.7050556 1.7480975
-5.4250879 -1.5566428 0.0044327872
-5.4703321 -1.5696248 0.10301425
-5.4944091 -1.5775712 0.2028178
-5.5436521 -1.5927573 0.3053126
-5.5760913 -1.6020775 0.40793136
-5.6144075 -1.6130862 0.51271254
-5.6391211 -1.6212521 0.61794686
-5.7601142 -1.6789204 1.165701
-5.797946 -1.7108265 1.3951744
-5.7791586 -1.7052828 1.2802103
-5.7661104 -1.7003388 1.1679897
-5.4706297 -1.62567 0.10330382
-5.5061183 -1.6372617 0.2038106
-5.5437083 -1.6494924 0.30615833
-5.5722175 -1.657975 0.40877303
-5.62187 -1.6727488 0.51481098
-5.6502781 -1.6822748 0.62087947
-5.669251 -1.6890008 0.72696078
-5.6904769 -1.6953247 0.83448195
-5.7286611 -1.7067006 0.94674146
-5.7494249 -1.713979 1.05776
-5.764502 -1.7195692 1.1687526
-5.7850199 -1.7267892 1.2827041
-5.7888074 -1.7279197 1.3942748
-5.816474 -1.736178 1.5138872
-5.8342018 -1.7425789 1.6327643
-5.8497782 -1.7472312 1.753619
-5.4305515 -1.5952085 0.0044453535
-5.4718733 -1.6073467 0.10323143
-5.5035648 -1.6176995 0.20352694
-5.5526958 -1.6331937 0.30636978
-5.5735712 -1.6393336 0.40849248
-5.6156301 -1.6517043 0.51376176
-5.6402712 -1.6600214 0.61920369
-5.6631041 -1.6678156 0.72549707
-5.6919756 -1.6763184 0.83392525
-5.7264152 -1.686461 0.94549
-5.7434454 -1.6925659 1.0556763
-5.6658411 -1.6300048 0.72452128
-5.429347 -1.6134022 0.0044484949
-5.6871696 -1.6361407 0.83169848
-5.7463961 -1.6542654 1.0542873
-5.6820827 -1.5960925 0.82947171
-5.7205305 -1.6068923 0.94110984
-5.7415071 -1.6138657 1.0515093
-5.7492218 -1.617117 1.1603607
-5.7775326 -1.6261684 1.2752224
-5.7852197 -1.628332 1.3870785
-5.8019319 -1.6330358 1.5032396
-5.8236656 -1.64025 1.6224042
-5.8357949 -1.6436663 1.7414718
-5.4240975 -1.5011768 0.0044202209
-5.4617553 -1.5115991 0.1025799
-5.4974756 -1.522518 0.2023923
-5.6606812 -1.5900809 0.7225697
-5.5353212 -1.5340395 0.30404398
-5.6101613 -1.5547804 0.51096386
-5.6349835 -1.5627185 0.61585212
-5.6618237 -1.5712261 0.72208184
-5.6832523 -1.5771729 0.828915
-5.7217441 -1.5878547 0.94048405
-5.7717357 -1.880921 1.1794331
-5.7467079 -1.5969431 1.1588349
-5.7826133 -1.6080079 1.2752224
-5.7865524 -1.6091033 1.386179
-5.807034 -1.6147988 1.5032396
-5.8213458 -1.6198733 1.6203321
-5.8335223 -1.6232615 1.7392632
-5.5755615 -1.5451915 0.40680912
-5.6377058 -1.5825655 0.61668998
-5.6167583 -1.5756278 0.51201308
-5.5706792 -1.5627016 0.40680912
-5.7578144 -1.6586409 1.1641752
-5.782239 -1.6667727 1.2785476
-5.7898545 -1.668968 1.3906767
-5.8064733 -1.6737584 1.5071115
-5.8280931 -1.6810921 1.6265483
-5.8438215 -1.685629 1.7469932
-5.4337997 -1.5406839 0.0044359285
-5.4636927 -1.5491596 0.10279708
-5.5031838 -1.5613945 0.20295963
-5.5486283 -1.5753347 0.3053126
-5.57342 -1.5823733 0.40737024
-5.6117811 -1.5932646 0.51201308
-5.6403599 -1.6024423 0.6175279
-5.6632957 -1.6100267 0.72354549
-5.6846609 -1.6161005 0.83058512
-5.719254 -1.6259352 0.94173557
-5.7364087 -1.6318942 1.0515093
-5.7554431 -1.6383948 1.1626494
-5.7874475 -1.6485975 1.2785476
-5.7913213 -1.6497009 1.3897772
-5.8005056 -1.652317 1.5042076
-5.8259153 -1.6606545 1.6244762
-5.8453922 -1.6662064 1.7458889
-5.4309092 -1.5214484 0.0044296454
-5.4646811 -1.5309094 0.10272469
-5.4965143 -1.540862 0.20253412
-5.5420122 -1.5546598 0.30467829
-5.7217116 -1.6460782 0.94298702
-5.8479409 -1.7667108 1.7547233
-5.7389579 -1.5937107 1.0501202
-5.4830599 -1.7614727 0.10424493
-5.8036294 -1.852174 1.2943424
-5.8071933 -1.8533113 1.4068682
-5.8196907 -1.8572999 1.5235668
-5.8408055 -1.8651618 1.6441606
-5.8487678 -1.8677045 1.7635577
-5.4338622 -1.7080796 0.0044736275
-5.4749422 -1.7209927 0.10388296
-5.5140419 -1.7343407 0.20508708
-5.5514073 -1.7471579 0.30806127
-5.5721307 -1.7536801 0.41073695
-5.6253095 -1.7704167 0.51760882
-5.6535115 -1.7803771 0.62423104
-5.7684765 -1.8398461 1.1763815
-5.6723146 -1.7873865 0.73086393
-5.7388277 -1.8083453 0.95299882
-5.7668762 -1.8182902 1.0660943
-5.770483 -1.8205345 1.1756186
-5.7870321 -1.8268663 1.2893546
-5.8055534 -1.832713 1.4050692
-5.8180943 -1.8366721 1.5216309
-5.8319001 -1.8421495 1.6400166
-5.8436084 -1.8458478 1.7602447
-5.4315629 -1.6886237 0.0044673444
-5.4765034 -1.7025952 0.10381057
-5.5118294 -1.7146329 0.20480342
-5.5492411 -1.7273332 0.30763838
-5.6933699 -1.7940212 0.83893549
-5.7406473 -1.8287628 0.95425028
-5.699028 -1.8155043 0.84060556
-5.6742373 -1.8076068 0.73183972
-5.8065505 -1.8933878 1.4095669
-5.8226652 -1.8986425 1.5274386
-5.8399897 -1.9054192 1.6472687
-5.8588467 -1.9115717 1.7701833
-5.4382572 -1.7470794 0.0044861939
-5.5144539 -1.77262 0.20551257
-5.5555305 -1.7868938 0.308907
-5.5837936 -1.7959844 0.4124203
-5.6254554 -1.8093847 0.51865804
-5.653574 -1.8195177 0.62548786
-5.6723099 -1.82664 0.73232758
-5.6932969 -1.8333983 0.84060556
-5.7423959 -1.8492095 0.95550179
-5.7628374 -1.8569025 1.0674833
-5.7738795 -1.8615729 1.1786702
-5.7940588 -1.8691952 1.293511
-5.8161798 -1.8763316 1.4104664
-5.8212147 -1.8779559 1.5255027
-5.838593 -1.8846904 1.6451966
-5.8575058 -1.8907955 1.7679747
-5.4360938 -1.727564 0.0044799107
-5.4733205 -1.7393944 0.10395535
-5.5199952 -1.7552881 0.20551257
-5.553504 -1.7670107 0.30848414
-5.578001 -1.7748051 0.41157863
-5.6235175 -1.7892876 0.51795858
-5.6554718 -1.8005419 0.62506896
-5.5738029 -1.7349788 0.41045639
-5.6194305 -1.7491814 0.51655966
-5.7573829 -1.8352009 1.0653998
-5.6741118 -1.7683748 0.73037601
-5.5731425 -1.696437 0.40961471
-5.6226859 -1.7115178 0.51586014
-5.6510134 -1.7212182 0.62213629
-5.6661224 -1.7269008 0.72793657
-5.6910806 -1.7345076 0.83615202
-5.7329416 -1.7472658 0.94924438
-5.7573824 -1.7558129 1.0612326
-5.7648516 -1.7591903 1.1710413
-5.7852821 -1.7665318 1.285198
-5.7964745 -1.7699494 1.3987725
-5.8128743 -1.7749572 1.5158231
-5.8342223 -1.7825888 1.6358725
-5.8497152 -1.7873225 1.7569319
-5.4280825 -1.6316013 0.0044516367
-5.4769859 -1.646301 0.103521
-5.504776 -1.6557018 0.20395243
-5.5461497 -1.6692015 0.3065812
-5.5708027 -1.6766212 0.40905359
-5.6165881 -1.6904011 0.51481098
-5.6563926 -1.7034577 0.62213629
-5.6753206 -1.7102383 0.72842443
-5.6514812 -1.7602398 0.62339318
-5.7270541 -1.7258281 0.94736719
-5.7477837 -1.7331688 1.0584545
-5.7665901 -1.7399379 1.1702783
-5.7833123 -1.7460846 1.2835355
-5.8020067 -1.7517288 1.3987725
-5.5485206 -1.6889422 0.30700409
-5.5033722 -1.6741499 0.20409426
-5.6965013 -1.716621 0.83615202
-5.8147063 -1.755563 1.5148551
-5.7537575 -1.7942986 1.0626216
-5.7649293 -1.7988867 1.1733299
-5.7890086 -1.8075091 1.2885232
-5.8112826 -1.8144637 1.4050692
-5.8201313 -1.8172266 1.5206629
-5.833971 -1.8226651 1.6389805
-5.8530488 -1.8286253 1.7613491
-5.429194 -1.6692016 0.0044610612
-5.4717875 -1.6634984 0.103521
-5.4780021 -1.6842076 0.10373817
-5.7407093 -1.7891304 0.95237309
-5.5470047 -1.7075419 0.30721551
-5.5754123 -1.7162867 0.41017583
-5.5095468 -1.6949587 0.20451976
-5.6531811 -1.7413065 0.62297422
-5.434412 -1.6521356 0.0044610612
-5.851418 -1.8079598 1.7591405
-5.8322854 -1.8020482 1.6369084
-5.8183947 -1.796644 1.5187269
-5.8057818 -1.7927494 1.4023706
-5.7871809 -1.7870057 1.2868606
-5.621089 -1.7303474 0.5162099
-5.7667994 -1.7796098 1.172567
-5.7311993 -1.7664331 0.94987017
-5.6931734 -1.7547131 0.83726537
-5.6682568 -1.7470334 0.72891235
-5.7556019 -1.7750541 1.0619271
-5.6989784 -1.7761247 0.83893549
-5.7209496 -2.5435426 0.76940745
-5.7513261 -2.5570481 0.88458425
-5.7832737 -2.5712521 1.0024321
-5.7036481 -2.5346584 0.65732789
-5.8091679 -2.5839791 1.1209617
-5.5571022 -2.4672117 0.21572438
-5.6266994 -2.4992871 0.43290102
-5.5998511 -2.4873614 0.32434177
-5.516252 -2.4479232 0.10923999
-5.4769363 -2.4304762 0.0047061057
-5.6663303 -2.5168905 0.54418874
-5.8151493 -2.5878553 1.2366501
-5.5966716 -2.4649251 0.32370746
-5.8500371 -2.6046045 1.4779313
-5.860836 -2.6094124 1.6000355
-5.8761392 -2.6174548 1.72497
-5.8894472 -2.6233826 1.8519012
-5.4772229 -2.4100344 0.0046998225
-5.5202551 -2.4289689 0.1091676
-5.5611672 -2.4481294 0.21558255
-5.895205 -2.6481721 1.8563184
-5.6272206 -2.4783797 0.43233991
-5.6669168 -2.495863 0.54348928
-5.7006617 -2.5119164 0.65607101
-5.7216463 -2.5223553 0.76843166
-5.748457 -2.5341747 0.88291419
-5.8405623 -2.6003859 1.3583529
-5.8784604 -2.6406505 1.728078
-5.7840929 -2.5498846 1.0011806
-5.8524928 -2.6277583 1.4806299
-5.5986724 -2.5290749 0.3251875
-5.6254296 -2.541162 0.43402326
-5.6758237 -2.5639262 0.54663694
-5.7057352 -2.5786371 0.65942258
-5.7229428 -2.5876169 0.77184695
-5.7531924 -2.601294 0.88736773
-5.7922034 -2.618933 1.0068123
-5.8071737 -2.6269226 1.1237397
-5.8238149 -2.635675 1.2419903
-5.8454938 -2.6467152 1.3633407
-5.8513098 -2.6493483 1.4824289
-5.8584676 -2.6525893 1.6039073
-5.8596911 -2.6309903 1.6019714
-5.8771734 -2.6622951 1.7301501
-5.480227 -2.4525714 0.0047155302
-5.5602694 -2.4895575 0.21614987
-5.595655 -2.5065734 0.32455322
-5.6261029 -2.5202127 0.43346214
-5.6729417 -2.5411942 0.54558772
-5.7029181 -2.5558169 0.65816575
-5.7237992 -2.5663748 0.77087116
-5.7432647 -2.5751026 0.88458425
-5.789588 -2.5958724 1.004935
-5.8082104 -2.6054397 1.1223507
-5.8213201 -2.612541 1.2397016
-5.8430724 -2.6235285 1.3608468
-5.8938599 -2.6698539 1.8585269
-5.519486 -2.4701409 0.10945717
-5.4854312 -2.6222935 0.0047752205
-5.8196573 -2.5679893 1.2358872
-5.7818751 -2.5056367 0.99805194
-5.797121 -2.5134456 1.1140164
-5.8176665 -2.5235596 1.2320727
-5.8396859 -2.5343223 1.3525338
-5.8492975 -2.5384934 1.4716346
-5.8566856 -2.5416999 1.5922918
-5.8721952 -2.5496485 1.7166818
-5.8892245 -2.5570426 1.844171
-5.4739594 -2.3472722 0.0046778312
-5.5171719 -2.365802 0.10866085
-5.5472565 -2.3798487 0.21416424
-5.5939598 -2.401041 0.32222742
-5.620995 -2.4126451 0.43009543
-5.6645555 -2.4313424 0.54104114
-5.6984968 -2.4470885 0.6531384
-5.7196312 -2.4573464 0.76501644
-5.7393312 -2.4658103 0.87790394
-5.7788291 -2.4827797 0.99617475
-5.7977514 -2.4921081 1.1126274
-5.8183522 -2.5021665 1.230547
-5.8296485 -2.50823 1.3483772
-5.5597072 -2.5103049 0.21643353
-5.8500834 -2.5170221 1.4698355
-5.8575125 -2.5202186 1.5903559
-5.8730798 -2.528131 1.7146099
-5.8901672 -2.5354865 1.8419625
-5.4739432 -2.3269348 0.004671548
-5.7460938 -2.4901304 0.88013071
-5.7992353 -2.5577691 1.117489
-5.7191677 -2.478462 0.76599222
-5.6642022 -2.4522939 0.5417406
-5.8451228 -2.5804453 1.3575217
-5.851059 -2.583066 1.4761323
-5.8619032 -2.5878534 1.5980996
-5.8772645 -2.5958605 1.722898
-5.890626 -2.6017621 1.8496926
-5.4701014 -2.3864183 0.0046872562
-5.516861 -2.4068179 0.10895042
-5.5505118 -2.4226518 0.21487339
-5.5934052 -2.4425359 0.32307318
-5.627665 -2.4574964 0.43177879
-5.663774 -2.4732647 0.54244006
-5.7012353 -2.490808 0.65523314
-5.7222672 -2.5011861 0.76745588
-5.7491312 -2.5129285 0.88180077
-5.7848353 -2.5285344 0.99992919
-5.8072429 -2.5395358 1.117489
-5.816905 -2.5449705 1.2335985
-5.8388638 -2.5557921 1.3541964
-5.8484349 -2.5599813 1.4734336
-5.8593388 -2.5647542 1.5951958
-5.874774 -2.5727324 1.7197899
-5.8917279 -2.5801573 1.847484
-5.4738998 -2.367635 0.0046841144
-5.5170531 -2.3863001 0.10880563
-5.5507584 -2.4020286 0.21458973
-5.5937195 -2.4217789 0.32265028
-5.6207104 -2.4334645 0.43065655
-5.6980805 -2.4681425 0.65397626
-5.5189886 -2.4907603 0.10960195
-5.7559357 -2.6901536 0.89293462
-5.8959341 -2.6931477 1.8618398
-5.856648 -2.7859526 1.4968215
-5.8810301 -2.7975512 1.6242344
-5.8887444 -2.8024809 1.7487984
-5.8980341 -2.8069019 1.8761957
-5.4800806 -2.577563 0.004756371
-5.529851 -2.6009727 0.11061545
-5.5666122 -2.6194499 0.21827734
-5.6052384 -2.6388211 0.32793617
-5.6353626 -2.653003 0.43795106
-5.6817179 -2.6748259 0.55118346
-5.7113118 -2.689976 0.66486889
-5.7354636 -2.702574 0.77916533
-5.8440356 -2.779953 1.374979
-5.7582049 -2.71329 0.89460474
-5.8115163 -2.7396502 1.1327685
-5.8314171 -2.7502756 1.2526709
-5.8527398 -2.7615809 1.374979
-5.8547964 -2.7625513 1.4941229
-5.8687291 -2.7691255 1.6184267
-5.8870378 -2.7790203 1.7456903
-5.8998694 -2.7850776 1.8739871
-5.4809022 -2.5569506 0.0047500879
-5.5307469 -2.580204 0.11047066
-5.5603251 -2.5951848 0.21771
-5.6026435 -2.616127 0.32730186
-5.6328239 -2.6302197 0.43710938
-5.7932386 -2.7297981 1.0143211
-5.6792626 -2.6519039 0.55013424
-5.8333869 -2.7736392 1.2549595
-5.7953401 -2.7530692 1.0161984
-5.5314417 -2.6442888 0.1109774
-5.5716825 -2.6647203 0.21912831
-5.6065645 -2.6826055 0.32899335
-5.6365795 -2.6969671 0.43935385
-5.6827726 -2.7190695 0.55293214
-5.5135355 -2.3437653 0.10844368
-5.7122388 -2.7343936 0.66696364
-5.7398534 -2.748847 0.78209269
-5.7589049 -2.757971 0.89738816
-5.793788 -2.7746766 1.0174499
-5.819056 -2.7880261 1.1376302
-5.8388066 -2.7987423 1.2580111
-5.8171134 -2.7646565 1.1355467
-5.8564401 -2.8084514 1.3799669
-5.875711 -2.8176928 1.6252024
-5.8868771 -2.824311 1.7508705
-5.8995848 -2.8304079 1.8795085
-5.486413 -2.6016209 0.0047689374
-5.5324936 -2.623472 0.11083262
-5.5619678 -2.6386375 0.21841916
-5.6077466 -2.6615543 0.32857049
-5.6414194 -2.677536 0.43907329
-5.6804867 -2.6960783 0.55188292
-5.7100205 -2.7113166 0.66570681
-5.734117 -2.7239852 0.78014112
-5.7568088 -2.7347648 0.8957181
-5.8619232 -2.8110809 1.5004196
-5.7089229 -2.6669674 0.66361207
-5.7295394 -2.6778166 0.77721375
-5.7910495 -2.7065647 1.0124439
-5.7354288 -2.6367912 0.7757501
-5.7619271 -2.6489735 0.89126456
-5.7899919 -2.661876 1.0093153
-5.8048692 -2.6699431 1.1265178
-5.8214083 -2.678781 1.2450418
-5.8500733 -2.6932092 1.3683286
-5.8557892 -2.6958406 1.4878261
-5.8628373 -2.6990852 1.6097151
-5.8848939 -2.710484 1.7374022
-5.8944283 -2.7148755 1.8640484
-5.4792714 -2.4935839 0.0047280965
-5.5256972 -2.5147119 0.10989152
-5.7074933 -2.6227419 0.66151732
-5.5590701 -2.5310707 0.2167172
-5.6319442 -2.5654376 0.4351455
-5.6749935 -2.5850472 0.5473364
-5.7048459 -2.5998478 0.6602605
-5.7256231 -2.6105232 0.7733106
-5.755805 -2.6242843 0.88903779
-5.7947321 -2.6420324 1.0086895
-5.8096452 -2.6500566 1.1258233
-5.8226514 -2.6572173 1.2435161
-5.8478289 -2.6699405 1.3658346
-5.850049 -2.670954 1.484228
-5.8642278 -2.6774275 1.6077791
-5.8828378 -2.6871653 1.7342942
-5.5943351 -2.548306 0.32539895
-5.6813288 -2.6095147 0.54873532
-5.6311092 -2.586448 0.43570662
-5.6008215 -2.5725365 0.32624468
-5.8093905 -2.7163723 1.130685
-5.8293595 -2.726949 1.2503822
-5.8507557 -2.738203 1.372485
-5.8493266 -2.7375343 1.4905248
-5.8668551 -2.7457376 1.6155229
-5.8852429 -2.7555954 1.7425823
-5.8981452 -2.7616365 1.8706741
-5.4816465 -2.5363607 0.0047438047
-5.5279355 -2.5577788 0.11025348
-5.5611949 -2.5743461 0.21742634
-5.6072097 -2.5968354 0.32709044
-5.6374378 -2.6108348 0.43682885
-5.6803336 -2.6307008 0.54943478
-5.7064447 -2.6440032 0.66235524
-5.7271175 -2.6547956 0.7757501
-5.7571712 -2.6687269 0.89182127
-5.7923546 -2.6850362 1.0111924
-5.8107476 -2.6947944 1.1292959
-5.8307734 -2.7053182 1.2488563
-5.8522305 -2.7165151 1.3708224
-5.854362 -2.7175045 1.4896252
-5.8684111 -2.7240257 1.6135869
-5.8868618 -2.7338393 1.7405102
-5.8893571 -2.734998 1.8651527
-5.478682 -2.5141206 0.0047343797
-5.5250406 -2.535394 0.11003631
-5.5619903 -2.5535252 0.21714269
-5.47614 -2.4714227 0.004718672
-5.5510263 -2.3608463 0.21402241
-5.6806288 -2.272089 0.64434052
-5.6248746 -2.3934133 0.42981488
-5.6122899 -2.202822 0.42392316
-5.6565289 -2.2201858 0.53334695
-5.687387 -2.233443 0.64350259
-5.7053127 -2.2416317 0.75330698
-5.7291579 -2.2510006 0.86510003
-5.7693906 -2.266808 0.98178279
-5.785182 -2.2741783 1.0959587
-5.8063779 -2.2836804 1.2122375
-5.8254576 -2.2923586 1.3300885
-5.8355875 -2.296345 1.4473472
-5.8471069 -2.300878 1.567125
-5.8633142 -2.3084376 1.6897454
-5.5736618 -2.1876602 0.31694153
-5.87747 -2.3140109 1.8143551
-5.5024195 -2.1375632 0.10685105
-5.5404725 -2.1534591 0.21090214
-5.5805063 -2.1701405 0.31694153
-5.6117444 -2.1822884 0.42336205
-5.6486201 -2.1966286 0.53194803
-5.6869607 -2.2126808 0.64266473
-5.704927 -2.2208176 0.7523312
-5.7288184 -2.230118 0.86398661
-5.7654381 -2.2443733 0.97990555
-5.7886267 -2.2545638 1.0952642
-5.7952299 -2.2583005 1.208423
-5.8253393 -2.2712047 1.3284259
-5.4585767 -2.1205316 0.0045992914
-5.8391409 -2.2765858 1.4464477
-5.5411234 -2.1737731 0.2111858
-5.4630604 -2.1420491 0.0046087164
-5.7296114 -2.2928407 0.8673268
-5.7697053 -2.3088851 0.98428571
-5.7890635 -2.3178039 1.0994314
-5.8064938 -2.3259587 1.2152891
-5.8290982 -2.336194 1.3342451
-5.8391323 -2.3402154 1.4518449
-5.8469443 -2.3433464 1.5709968
-5.8666234 -2.3524218 1.6949254
-5.8735194 -2.3551869 1.8176681
-5.4563036 -2.1592028 0.0046087164
-5.5074739 -2.1794524 0.10721301
-5.5416999 -2.1941152 0.21146946
-5.5031242 -2.157758 0.10699583
-5.5779018 -2.2095747 0.31757584
-5.6569347 -2.2408819 0.53404641
-5.6840396 -2.2527668 0.64392155
-5.7093129 -2.2639363 0.7547707
-5.7331038 -2.2733703 0.86677009
-5.7659121 -2.2863798 0.98240852
-5.7889934 -2.2967014 1.0980424
-5.7991743 -2.3019121 1.2122375
-5.8218627 -2.3120944 1.3309199
-5.8392105 -2.318984 1.4500458
-5.8470626 -2.3221023 1.5690608
-5.8596225 -2.3282745 1.6907814
-5.8808889 -2.3367243 1.8176681
-5.612761 -2.2233832 0.42448428
-5.720603 -2.2892356 0.75721014
-5.847074 -2.2796786 1.565189
-5.8739653 -2.2913444 1.8110423
-5.8314891 -2.2314944 1.4410505
-5.8431587 -2.2359598 1.5603492
-5.8703771 -2.2475502 1.6856014
-5.8738852 -2.248893 1.8066251
-5.4521251 -2.0591002 0.0045773
-5.4998722 -2.0771327 0.10641669
-5.5380855 -2.092669 0.21005115
-5.5782938 -2.1089752 0.31567293
-5.6059365 -2.119426 0.42139813
-5.6429815 -2.1334314 0.52949989
-5.6777959 -2.1477263 0.63931316
